334.728007  -32.305837  918.000000
336.325521  -32.305837  918.000000
337.923035  -32.305837  918.000000
339.520549  -32.305837  918.000000
341.118063  -32.305837  918.000000
342.715577  -32.305837  918.000000
344.313090  -32.305837  918.000000
345.910604  -32.305837  918.000000
347.508118  -32.305837  918.000000
347.964764  -32.200262  915.000000
349.557057  -32.200262  915.000000
351.149351  -32.200262  915.000000
352.741644  -32.200262  915.000000
354.333937  -32.200262  915.000000
355.926230  -32.200262  915.000000
357.518524  -32.200262  915.000000
359.110817  -32.200262  915.000000
360.703110  -32.200262  915.000000
362.295403  -32.200262  915.000000
363.887697  -32.200262  915.000000
365.479990  -32.200262  915.000000
367.072283  -32.200262  915.000000
368.664576  -32.200262  915.000000
370.256870  -32.200262  915.000000
371.849163  -32.200262  915.000000
373.441456  -32.200262  915.000000
375.033749  -32.200262  915.000000
376.626043  -32.200262  915.000000
378.218336  -32.200262  915.000000
379.810629  -32.200262  915.000000
381.402922  -32.200262  915.000000
382.995216  -32.200262  915.000000
384.587509  -32.200262  915.000000
386.179802  -32.200262  915.000000
387.772095  -32.200262  915.000000
389.364389  -32.200262  915.000000
390.102132  -32.129879  913.000000
391.690944  -32.129879  913.000000
393.279757  -32.129879  913.000000
394.868570  -32.129879  913.000000
396.457383  -32.129879  913.000000
398.046196  -32.129879  913.000000
399.635009  -32.129879  913.000000
401.223821  -32.129879  913.000000
402.812634  -32.129879  913.000000
404.401447  -32.129879  913.000000
405.990260  -32.129879  913.000000
407.579073  -32.129879  913.000000
409.167886  -32.129879  913.000000
410.756698  -32.129879  913.000000
412.345511  -32.129879  913.000000
413.934324  -32.129879  913.000000
415.523137  -32.129879  913.000000
415.741374  -32.024304  910.000000
417.324966  -32.024304  910.000000
418.908558  -32.024304  910.000000
420.492150  -32.024304  910.000000
422.075743  -32.024304  910.000000
423.659335  -32.024304  910.000000
425.242927  -32.024304  910.000000
426.826519  -32.024304  910.000000
428.410111  -32.024304  910.000000
429.993703  -32.024304  910.000000
431.577296  -32.024304  910.000000
433.160888  -32.024304  910.000000
434.744480  -32.024304  910.000000
436.328072  -32.024304  910.000000
437.911664  -32.024304  910.000000
439.495257  -32.024304  910.000000
441.078849  -32.024304  910.000000
442.662441  -32.024304  910.000000
444.246033  -32.024304  910.000000
445.829625  -32.024304  910.000000
447.413218  -32.024304  910.000000
448.996810  -32.024304  910.000000
449.590115  -31.953921  908.000000
451.170227  -31.953921  908.000000
452.750339  -31.953921  908.000000
454.330451  -31.953921  908.000000
455.910563  -31.953921  908.000000
457.490674  -31.953921  908.000000
459.070786  -31.953921  908.000000
460.650898  -31.953921  908.000000
462.231010  -31.953921  908.000000
463.811121  -31.953921  908.000000
465.391233  -31.953921  908.000000
466.971345  -31.953921  908.000000
468.551457  -31.953921  908.000000
470.131568  -31.953921  908.000000
-525.657885  -36.027084  1077.000000
-520.379326  -35.792925  1070.000000
-518.517300  -35.792925  1070.000000
-514.723853  -35.659120  1066.000000
-512.868788  -35.659120  1066.000000
-511.013723  -35.659120  1066.000000
-511.069197  -35.792925  1070.000000
-507.303592  -35.659120  1066.000000
-504.026064  -35.558766  1063.000000
-502.176220  -35.558766  1063.000000
-498.914353  -35.458412  1060.000000
-493.787194  -35.224252  1053.000000
-491.954751  -35.224252  1053.000000
-488.725949  -35.123898  1050.000000
-486.898727  -35.123898  1050.000000
-485.071505  -35.123898  1050.000000
-483.244284  -35.123898  1050.000000
-481.417062  -35.123898  1050.000000
-479.589840  -35.123898  1050.000000
-477.762618  -35.123898  1050.000000
-474.575581  -35.023544  1047.000000
-472.753580  -35.023544  1047.000000
-470.931579  -35.023544  1047.000000
-469.109578  -35.023544  1047.000000
-467.287577  -35.023544  1047.000000
-461.821573  -35.023544  1047.000000
-459.999572  -35.023544  1047.000000
-458.177571  -35.023544  1047.000000
-456.355570  -35.023544  1047.000000
-454.533569  -35.023544  1047.000000
-452.711568  -35.023544  1047.000000
-449.597619  -34.923190  1044.000000
-447.780839  -34.923190  1044.000000
-444.255384  -34.789385  1040.000000
-442.445564  -34.789385  1040.000000
-440.635744  -34.789385  1040.000000
-438.825925  -34.789385  1040.000000
-437.016105  -34.789385  1040.000000
-435.206286  -34.789385  1040.000000
-433.396466  -34.789385  1040.000000
-431.586646  -34.789385  1040.000000
-429.776827  -34.789385  1040.000000
-427.967007  -34.789385  1040.000000
-426.157187  -34.789385  1040.000000
-424.347368  -34.789385  1040.000000
-422.537548  -34.789385  1040.000000
-420.727728  -34.789385  1040.000000
-420.529131  -34.923190  1044.000000
-418.712351  -34.923190  1044.000000
-416.895570  -34.923190  1044.000000
-415.078790  -34.923190  1044.000000
-413.262009  -34.923190  1044.000000
-411.445229  -34.923190  1044.000000
-409.628448  -34.923190  1044.000000
-407.811668  -34.923190  1044.000000
-405.994887  -34.923190  1044.000000
-405.339538  -35.023544  1047.000000
-403.517537  -35.023544  1047.000000
-402.846526  -35.123898  1050.000000
-401.019304  -35.123898  1050.000000
-400.332631  -35.224252  1053.000000
-398.500189  -35.224252  1053.000000
-398.174557  -35.358058  1057.000000
-396.335153  -35.358058  1057.000000
-394.495750  -35.358058  1057.000000
-392.656347  -35.358058  1057.000000
-390.816944  -35.358058  1057.000000
-388.977540  -35.358058  1057.000000
-387.138137  -35.358058  1057.000000
-383.840650  -35.224252  1053.000000
-382.008207  -35.224252  1053.000000
-380.175765  -35.224252  1053.000000
-378.343323  -35.224252  1053.000000
-376.510880  -35.224252  1053.000000
-374.678438  -35.224252  1053.000000
-372.845995  -35.224252  1053.000000
-372.422911  -35.358058  1057.000000
-370.583508  -35.358058  1057.000000
-369.790682  -35.458412  1060.000000
-367.946058  -35.458412  1060.000000
-366.101434  -35.458412  1060.000000
-365.287726  -35.558766  1063.000000
-363.437882  -35.558766  1063.000000
-361.588037  -35.558766  1063.000000
-359.738193  -35.558766  1063.000000
-358.898381  -35.659120  1066.000000
-357.043316  -35.659120  1066.000000
-355.188251  -35.659120  1066.000000
-353.333186  -35.659120  1066.000000
-352.796988  -35.792925  1070.000000
-349.623055  -35.659120  1066.000000
-347.767990  -35.659120  1066.000000
-345.912925  -35.659120  1066.000000
-344.057860  -35.659120  1066.000000
-342.202795  -35.659120  1066.000000
-339.389903  -35.558766  1063.000000
-337.540058  -35.558766  1063.000000
-334.742829  -35.458412  1060.000000
-333.840369  -35.558766  1063.000000
-331.990525  -35.558766  1063.000000
-329.208957  -35.458412  1060.000000
-326.437830  -35.358058  1057.000000
-325.519709  -35.458412  1060.000000
-317.240814  -35.358058  1057.000000
-315.401411  -35.358058  1057.000000
-315.341924  -35.558766  1063.000000
-313.492080  -35.558766  1063.000000
6.297550  -34.287615  1025.000000
8.081266  -34.287615  1025.000000
9.864983  -34.287615  1025.000000
11.614606  -34.187261  1022.000000
13.393101  -34.187261  1022.000000
15.171597  -34.187261  1022.000000
16.900337  -34.086907  1019.000000
18.673613  -34.086907  1019.000000
20.446888  -34.086907  1019.000000
22.220163  -34.086907  1019.000000
23.922800  -33.986553  1016.000000
25.690855  -33.986553  1016.000000
27.458909  -33.986553  1016.000000
29.226964  -33.986553  1016.000000
31.086539  -34.086907  1019.000000
37.678853  -32.146730  961.000000
39.351196  -32.146730  961.000000
41.023539  -32.146730  961.000000
42.695882  -32.146730  961.000000
44.368225  -32.146730  961.000000
45.944750  -32.079827  959.000000
47.613613  -32.079827  959.000000
49.282475  -32.079827  959.000000
50.951338  -32.079827  959.000000
52.620200  -32.079827  959.000000
54.289063  -32.079827  959.000000
55.957925  -32.079827  959.000000
57.626788  -32.079827  959.000000
59.295650  -32.079827  959.000000
60.964513  -32.079827  959.000000
62.633376  -32.079827  959.000000
64.101084  -31.979473  956.000000
65.764726  -31.979473  956.000000
67.428368  -31.979473  956.000000
69.092010  -31.979473  956.000000
71.434512  -31.544606  943.000000
72.455591  -31.276995  935.000000
73.924223  -31.210093  933.000000
75.547840  -31.210093  933.000000
76.923317  -31.109739  930.000000
78.541713  -31.109739  930.000000
80.160110  -31.109739  930.000000
81.778506  -31.109739  930.000000
83.396903  -31.109739  930.000000
85.015299  -31.109739  930.000000
86.447386  -31.042836  928.000000
88.062302  -31.042836  928.000000
89.677218  -31.042836  928.000000
91.292134  -31.042836  928.000000
92.907050  -31.042836  928.000000
94.521966  -31.042836  928.000000
96.136882  -31.042836  928.000000
97.751798  -31.042836  928.000000
99.366714  -31.042836  928.000000
100.981630  -31.042836  928.000000
102.596546  -31.042836  928.000000
104.211462  -31.042836  928.000000
105.826378  -31.042836  928.000000
107.441294  -31.042836  928.000000
109.056210  -31.042836  928.000000
110.671126  -31.042836  928.000000
112.286042  -31.042836  928.000000
113.900958  -31.042836  928.000000
115.515874  -31.042836  928.000000
117.130790  -31.042836  928.000000
118.745706  -31.042836  928.000000
120.360622  -31.042836  928.000000
121.975538  -31.042836  928.000000
123.590454  -31.042836  928.000000
124.800612  -30.942482  925.000000
126.410307  -30.942482  925.000000
128.020002  -30.942482  925.000000
129.629698  -30.942482  925.000000
131.665034  -31.042836  928.000000
133.279950  -31.042836  928.000000
134.894866  -31.042836  928.000000
136.509782  -31.042836  928.000000
138.124698  -31.042836  928.000000
139.739614  -31.042836  928.000000
140.897565  -30.942482  925.000000
142.507261  -30.942482  925.000000
144.116956  -30.942482  925.000000
145.726651  -30.942482  925.000000
147.336347  -30.942482  925.000000
148.946042  -30.942482  925.000000
150.555737  -30.942482  925.000000
152.165433  -30.942482  925.000000
153.775128  -30.942482  925.000000
155.384823  -30.942482  925.000000
156.994519  -30.942482  925.000000
158.604214  -30.942482  925.000000
160.213910  -30.942482  925.000000
161.823605  -30.942482  925.000000
163.433300  -30.942482  925.000000
165.042996  -30.942482  925.000000
166.652691  -30.942482  925.000000
168.262386  -30.942482  925.000000
169.872082  -30.942482  925.000000
172.037934  -31.042836  928.000000
173.091472  -30.942482  925.000000
175.267766  -31.042836  928.000000
176.882682  -31.042836  928.000000
178.497598  -31.042836  928.000000
183.342346  -31.042836  928.000000
184.957262  -31.042836  928.000000
186.572178  -31.042836  928.000000
187.578731  -30.942482  925.000000
189.188426  -30.942482  925.000000
190.798121  -30.942482  925.000000
192.407817  -30.942482  925.000000
194.017512  -30.942482  925.000000
195.627207  -30.942482  925.000000
197.236903  -30.942482  925.000000
198.846598  -30.942482  925.000000
200.456294  -30.942482  925.000000
202.065989  -30.942482  925.000000
203.675684  -30.942482  925.000000
205.285380  -30.942482  925.000000
206.895075  -30.942482  925.000000
208.504770  -30.942482  925.000000
210.114466  -30.942482  925.000000
211.266379  -30.875579  923.000000
212.872594  -30.875579  923.000000
214.478809  -30.875579  923.000000
216.085024  -30.875579  923.000000
217.691239  -30.875579  923.000000
218.584678  -30.775225  920.000000
220.903669  -30.875579  923.000000
222.509884  -30.875579  923.000000
224.116099  -30.875579  923.000000
225.722314  -30.875579  923.000000
226.589649  -30.775225  920.000000
228.190644  -30.775225  920.000000
229.791638  -30.775225  920.000000
231.392632  -30.775225  920.000000
233.753388  -30.875579  923.000000
235.359603  -30.875579  923.000000
236.965818  -30.875579  923.000000
238.572033  -30.875579  923.000000
239.397604  -30.775225  920.000000
241.784463  -30.875579  923.000000
243.390678  -30.875579  923.000000
244.996893  -30.875579  923.000000
246.603108  -30.875579  923.000000
248.209323  -30.875579  923.000000
249.815538  -30.875579  923.000000
251.421753  -30.875579  923.000000
253.027968  -30.875579  923.000000
254.634183  -30.875579  923.000000
256.240397  -30.875579  923.000000
257.846612  -30.875579  923.000000
259.452827  -30.875579  923.000000
260.210530  -30.775225  920.000000
261.811524  -30.775225  920.000000
263.412518  -30.775225  920.000000
265.013513  -30.775225  920.000000
266.034910  -30.708323  918.000000
267.632424  -30.708323  918.000000
269.229938  -30.708323  918.000000
270.827452  -30.708323  918.000000
272.424966  -30.708323  918.000000
274.022480  -30.708323  918.000000
275.619993  -30.708323  918.000000
277.217507  -30.708323  918.000000
278.815021  -30.708323  918.000000
281.023456  -30.775225  920.000000
282.624450  -30.775225  920.000000
284.225444  -30.775225  920.000000
285.826439  -30.775225  920.000000
287.427433  -30.775225  920.000000
289.028427  -30.775225  920.000000
290.629421  -30.775225  920.000000
292.230416  -30.775225  920.000000
293.831410  -30.775225  920.000000
295.432404  -30.775225  920.000000
297.033399  -30.775225  920.000000
298.634393  -30.775225  920.000000
299.582702  -30.708323  918.000000
301.180216  -30.708323  918.000000
302.777729  -30.708323  918.000000
304.375243  -30.708323  918.000000
305.972757  -30.708323  918.000000
307.570271  -30.708323  918.000000
309.167785  -30.708323  918.000000
310.765299  -30.708323  918.000000
312.362813  -30.708323  918.000000
313.960327  -30.708323  918.000000
315.557841  -30.708323  918.000000
317.155354  -30.708323  918.000000
318.752868  -30.708323  918.000000
320.350382  -30.708323  918.000000
321.947896  -30.708323  918.000000
323.545410  -30.708323  918.000000
325.142924  -30.708323  918.000000
326.740438  -30.708323  918.000000
328.337952  -30.708323  918.000000
329.935465  -30.708323  918.000000
331.532979  -30.708323  918.000000
333.130493  -30.708323  918.000000
334.728007  -30.708323  918.000000
336.325521  -30.708323  918.000000
337.923035  -30.708323  918.000000
339.520549  -30.708323  918.000000
341.118063  -30.708323  918.000000
342.715577  -30.708323  918.000000
344.313090  -30.708323  918.000000
345.910604  -30.708323  918.000000
347.508118  -30.708323  918.000000
349.105632  -30.708323  918.000000
350.703146  -30.708323  918.000000
352.300660  -30.708323  918.000000
353.898174  -30.708323  918.000000
355.495688  -30.708323  918.000000
355.926230  -30.607969  915.000000
357.518524  -30.607969  915.000000
359.110817  -30.607969  915.000000
360.703110  -30.607969  915.000000
362.295403  -30.607969  915.000000
363.887697  -30.607969  915.000000
366.678285  -30.708323  918.000000
367.072283  -30.607969  915.000000
368.664576  -30.607969  915.000000
370.256870  -30.607969  915.000000
371.849163  -30.607969  915.000000
374.665854  -30.708323  918.000000
376.263368  -30.708323  918.000000
377.860882  -30.708323  918.000000
379.458396  -30.708323  918.000000
379.810629  -30.607969  915.000000
381.402922  -30.607969  915.000000
382.995216  -30.607969  915.000000
384.587509  -30.607969  915.000000
386.179802  -30.607969  915.000000
387.772095  -30.607969  915.000000
389.364389  -30.607969  915.000000
390.956682  -30.607969  915.000000
392.548975  -30.607969  915.000000
394.141268  -30.607969  915.000000
395.733562  -30.607969  915.000000
396.457383  -30.541066  913.000000
398.918148  -30.607969  915.000000
399.635009  -30.541066  913.000000
401.223821  -30.541066  913.000000
402.812634  -30.541066  913.000000
404.401447  -30.541066  913.000000
405.990260  -30.541066  913.000000
407.579073  -30.541066  913.000000
409.167886  -30.541066  913.000000
410.756698  -30.541066  913.000000
412.345511  -30.541066  913.000000
413.934324  -30.541066  913.000000
415.523137  -30.541066  913.000000
417.111950  -30.541066  913.000000
418.700763  -30.541066  913.000000
420.289575  -30.541066  913.000000
421.878388  -30.541066  913.000000
423.467201  -30.541066  913.000000
425.056014  -30.541066  913.000000
425.242927  -30.440712  910.000000
426.826519  -30.440712  910.000000
428.410111  -30.440712  910.000000
429.993703  -30.440712  910.000000
431.577296  -30.440712  910.000000
434.588891  -30.541066  913.000000
436.177704  -30.541066  913.000000
436.328072  -30.440712  910.000000
437.911664  -30.440712  910.000000
439.495257  -30.440712  910.000000
442.532955  -30.541066  913.000000
444.121768  -30.541066  913.000000
445.710581  -30.541066  913.000000
447.299393  -30.541066  913.000000
447.413218  -30.440712  910.000000
448.996810  -30.440712  910.000000
450.580402  -30.440712  910.000000
452.163994  -30.440712  910.000000
452.750339  -30.373809  908.000000
454.330451  -30.373809  908.000000
455.910563  -30.373809  908.000000
457.490674  -30.373809  908.000000
459.070786  -30.373809  908.000000
460.650898  -30.373809  908.000000
462.231010  -30.373809  908.000000
463.811121  -30.373809  908.000000
465.391233  -30.373809  908.000000
466.971345  -30.373809  908.000000
468.551457  -30.373809  908.000000
470.131568  -30.373809  908.000000
-514.412640  -34.152877  1077.000000
-509.207171  -33.930899  1070.000000
-481.417062  -33.296677  1050.000000
-479.589840  -33.296677  1050.000000
-477.762618  -33.296677  1050.000000
-474.575581  -33.201543  1047.000000
-472.753580  -33.201543  1047.000000
-470.931579  -33.201543  1047.000000
-469.109578  -33.201543  1047.000000
-467.287577  -33.201543  1047.000000
-466.799288  -33.296677  1050.000000
-464.972066  -33.296677  1050.000000
-461.821573  -33.201543  1047.000000
-459.999572  -33.201543  1047.000000
-458.177571  -33.201543  1047.000000
-456.355570  -33.201543  1047.000000
-454.533569  -33.201543  1047.000000
-452.711568  -33.201543  1047.000000
-450.889566  -33.201543  1047.000000
-447.780839  -33.106410  1044.000000
-445.964058  -33.106410  1044.000000
-444.147278  -33.106410  1044.000000
-440.635744  -32.979566  1040.000000
-438.825925  -32.979566  1040.000000
-437.016105  -32.979566  1040.000000
-435.206286  -32.979566  1040.000000
-433.396466  -32.979566  1040.000000
-431.586646  -32.979566  1040.000000
-429.776827  -32.979566  1040.000000
-427.967007  -32.979566  1040.000000
-426.157187  -32.979566  1040.000000
-424.347368  -32.979566  1040.000000
-424.162692  -33.106410  1044.000000
-422.345912  -33.106410  1044.000000
-420.529131  -33.106410  1044.000000
-418.712351  -33.106410  1044.000000
-416.895570  -33.106410  1044.000000
-416.271545  -33.201543  1047.000000
-414.449544  -33.201543  1047.000000
-411.445229  -33.106410  1044.000000
-410.805542  -33.201543  1047.000000
-408.983541  -33.201543  1047.000000
-407.161539  -33.201543  1047.000000
-405.339538  -33.201543  1047.000000
-404.673748  -33.296677  1050.000000
-402.846526  -33.296677  1050.000000
-402.165074  -33.391810  1053.000000
-400.332631  -33.391810  1053.000000
-398.500189  -33.391810  1053.000000
-399.304664  -33.613788  1060.000000
-397.460040  -33.613788  1060.000000
-395.615416  -33.613788  1060.000000
-393.770793  -33.613788  1060.000000
-391.926169  -33.613788  1060.000000
-391.185549  -33.708921  1063.000000
-389.335705  -33.708921  1063.000000
-386.392297  -33.613788  1060.000000
-384.547673  -33.613788  1060.000000
-381.619927  -33.518655  1057.000000
-379.780524  -33.518655  1057.000000
-377.941121  -33.518655  1057.000000
-376.101718  -33.518655  1057.000000
-374.262315  -33.518655  1057.000000
-373.479930  -33.613788  1060.000000
-371.635306  -33.613788  1060.000000
-369.790682  -33.613788  1060.000000
-368.987415  -33.708921  1063.000000
-367.137571  -33.708921  1063.000000
-365.287726  -33.708921  1063.000000
-363.437882  -33.708921  1063.000000
-361.588037  -33.708921  1063.000000
-360.753446  -33.804055  1066.000000
-358.898381  -33.804055  1066.000000
-358.383066  -33.930899  1070.000000
-357.520631  -34.026032  1073.000000
-355.653385  -34.026032  1073.000000
-353.786138  -34.026032  1073.000000
-350.934962  -33.930899  1070.000000
-349.072936  -33.930899  1070.000000
-347.210910  -33.930899  1070.000000
-345.348884  -33.930899  1070.000000
-343.486858  -33.930899  1070.000000
-340.347730  -33.804055  1066.000000
-338.492664  -33.804055  1066.000000
-336.637599  -33.804055  1066.000000
-334.782534  -33.804055  1066.000000
-332.927469  -33.804055  1066.000000
9.864983  -32.503899  1025.000000
11.648699  -32.503899  1025.000000
13.432416  -32.503899  1025.000000
15.171597  -32.408765  1022.000000
16.950093  -32.408765  1022.000000
18.728589  -32.408765  1022.000000
20.446888  -32.313632  1019.000000
22.220163  -32.313632  1019.000000
23.993438  -32.313632  1019.000000
25.766714  -32.313632  1019.000000
27.539989  -32.313632  1019.000000
29.313264  -32.313632  1019.000000
31.178060  -32.408765  1022.000000
37.796477  -30.569520  964.000000
39.474041  -30.569520  964.000000
41.151604  -30.569520  964.000000
42.695882  -30.474387  961.000000
44.368225  -30.474387  961.000000
46.040568  -30.474387  961.000000
47.712911  -30.474387  961.000000
49.385254  -30.474387  961.000000
50.951338  -30.410965  959.000000
52.729940  -30.474387  961.000000
54.289063  -30.410965  959.000000
55.957925  -30.410965  959.000000
57.626788  -30.410965  959.000000
59.295650  -30.410965  959.000000
60.964513  -30.410965  959.000000
62.633376  -30.410965  959.000000
64.101084  -30.315831  956.000000
65.764726  -30.315831  956.000000
67.428368  -30.315831  956.000000
69.092010  -30.315831  956.000000
72.455591  -29.649898  935.000000
73.924223  -29.586476  933.000000
75.547840  -29.586476  933.000000
76.923317  -29.491342  930.000000
78.541713  -29.491342  930.000000
80.160110  -29.491342  930.000000
81.778506  -29.491342  930.000000
83.396903  -29.491342  930.000000
85.015299  -29.491342  930.000000
86.633695  -29.491342  930.000000
88.252092  -29.491342  930.000000
89.677218  -29.427920  928.000000
91.292134  -29.427920  928.000000
92.907050  -29.427920  928.000000
94.521966  -29.427920  928.000000
96.136882  -29.427920  928.000000
97.751798  -29.427920  928.000000
99.366714  -29.427920  928.000000
100.981630  -29.427920  928.000000
102.596546  -29.427920  928.000000
104.211462  -29.427920  928.000000
105.826378  -29.427920  928.000000
107.441294  -29.427920  928.000000
109.056210  -29.427920  928.000000
110.671126  -29.427920  928.000000
112.286042  -29.427920  928.000000
113.900958  -29.427920  928.000000
115.515874  -29.427920  928.000000
117.130790  -29.427920  928.000000
118.745706  -29.427920  928.000000
120.360622  -29.427920  928.000000
121.975538  -29.427920  928.000000
123.590454  -29.427920  928.000000
125.205370  -29.427920  928.000000
126.820286  -29.427920  928.000000
128.435202  -29.427920  928.000000
130.050118  -29.427920  928.000000
131.665034  -29.427920  928.000000
133.279950  -29.427920  928.000000
134.894866  -29.427920  928.000000
136.509782  -29.427920  928.000000
138.124698  -29.427920  928.000000
139.739614  -29.427920  928.000000
141.354530  -29.427920  928.000000
142.969446  -29.427920  928.000000
144.584362  -29.427920  928.000000
146.199278  -29.427920  928.000000
147.814194  -29.427920  928.000000
149.429110  -29.427920  928.000000
150.555737  -29.332787  925.000000
152.165433  -29.332787  925.000000
153.775128  -29.332787  925.000000
155.384823  -29.332787  925.000000
156.994519  -29.332787  925.000000
158.604214  -29.332787  925.000000
160.213910  -29.332787  925.000000
161.823605  -29.332787  925.000000
163.433300  -29.332787  925.000000
165.042996  -29.332787  925.000000
166.652691  -29.332787  925.000000
168.262386  -29.332787  925.000000
169.872082  -29.332787  925.000000
172.037934  -29.427920  928.000000
173.652850  -29.427920  928.000000
175.267766  -29.427920  928.000000
176.882682  -29.427920  928.000000
178.497598  -29.427920  928.000000
180.112514  -29.427920  928.000000
181.727430  -29.427920  928.000000
183.342346  -29.427920  928.000000
184.957262  -29.427920  928.000000
186.572178  -29.427920  928.000000
188.187094  -29.427920  928.000000
189.802010  -29.427920  928.000000
191.416926  -29.427920  928.000000
193.031842  -29.427920  928.000000
194.017512  -29.332787  925.000000
196.261674  -29.427920  928.000000
197.236903  -29.332787  925.000000
198.846598  -29.332787  925.000000
200.456294  -29.332787  925.000000
202.065989  -29.332787  925.000000
203.675684  -29.332787  925.000000
205.285380  -29.332787  925.000000
206.895075  -29.332787  925.000000
208.504770  -29.332787  925.000000
210.114466  -29.332787  925.000000
211.266379  -29.269364  923.000000
212.872594  -29.269364  923.000000
214.478809  -29.269364  923.000000
216.085024  -29.269364  923.000000
217.691239  -29.269364  923.000000
219.297454  -29.269364  923.000000
220.903669  -29.269364  923.000000
222.509884  -29.269364  923.000000
224.116099  -29.269364  923.000000
225.722314  -29.269364  923.000000
227.328529  -29.269364  923.000000
228.934743  -29.269364  923.000000
230.540958  -29.269364  923.000000
232.147173  -29.269364  923.000000
233.753388  -29.269364  923.000000
235.359603  -29.269364  923.000000
236.965818  -29.269364  923.000000
238.572033  -29.269364  923.000000
240.178248  -29.269364  923.000000
241.784463  -29.269364  923.000000
243.390678  -29.269364  923.000000
244.996893  -29.269364  923.000000
246.603108  -29.269364  923.000000
248.209323  -29.269364  923.000000
249.815538  -29.269364  923.000000
251.421753  -29.269364  923.000000
253.027968  -29.269364  923.000000
254.634183  -29.269364  923.000000
256.240397  -29.269364  923.000000
257.846612  -29.269364  923.000000
259.452827  -29.269364  923.000000
261.059042  -29.269364  923.000000
261.811524  -29.174231  920.000000
263.412518  -29.174231  920.000000
265.013513  -29.174231  920.000000
266.614507  -29.174231  920.000000
268.215501  -29.174231  920.000000
269.816496  -29.174231  920.000000
271.417490  -29.174231  920.000000
273.018484  -29.174231  920.000000
274.619478  -29.174231  920.000000
275.619993  -29.110809  918.000000
277.821467  -29.174231  920.000000
279.422461  -29.174231  920.000000
281.023456  -29.174231  920.000000
282.624450  -29.174231  920.000000
284.225444  -29.174231  920.000000
285.826439  -29.174231  920.000000
287.427433  -29.174231  920.000000
289.028427  -29.174231  920.000000
290.629421  -29.174231  920.000000
292.230416  -29.174231  920.000000
293.831410  -29.174231  920.000000
295.432404  -29.174231  920.000000
297.033399  -29.174231  920.000000
298.634393  -29.174231  920.000000
300.235387  -29.174231  920.000000
301.836382  -29.174231  920.000000
303.437376  -29.174231  920.000000
305.038370  -29.174231  920.000000
305.972757  -29.110809  918.000000
307.570271  -29.110809  918.000000
309.167785  -29.110809  918.000000
310.765299  -29.110809  918.000000
312.362813  -29.110809  918.000000
313.960327  -29.110809  918.000000
315.557841  -29.110809  918.000000
317.155354  -29.110809  918.000000
318.752868  -29.110809  918.000000
320.350382  -29.110809  918.000000
321.947896  -29.110809  918.000000
323.545410  -29.110809  918.000000
325.142924  -29.110809  918.000000
326.740438  -29.110809  918.000000
328.337952  -29.110809  918.000000
329.935465  -29.110809  918.000000
331.532979  -29.110809  918.000000
333.130493  -29.110809  918.000000
334.728007  -29.110809  918.000000
336.325521  -29.110809  918.000000
337.923035  -29.110809  918.000000
339.520549  -29.110809  918.000000
341.118063  -29.110809  918.000000
342.715577  -29.110809  918.000000
344.313090  -29.110809  918.000000
345.910604  -29.110809  918.000000
347.508118  -29.110809  918.000000
349.105632  -29.110809  918.000000
350.703146  -29.110809  918.000000
352.300660  -29.110809  918.000000
353.898174  -29.110809  918.000000
355.495688  -29.110809  918.000000
357.093202  -29.110809  918.000000
357.518524  -29.015675  915.000000
359.110817  -29.015675  915.000000
360.703110  -29.015675  915.000000
362.295403  -29.015675  915.000000
365.080771  -29.110809  918.000000
366.678285  -29.110809  918.000000
368.275799  -29.110809  918.000000
369.873313  -29.110809  918.000000
371.470826  -29.110809  918.000000
373.068340  -29.110809  918.000000
374.665854  -29.110809  918.000000
376.263368  -29.110809  918.000000
377.860882  -29.110809  918.000000
379.458396  -29.110809  918.000000
381.055910  -29.110809  918.000000
382.653424  -29.110809  918.000000
382.995216  -29.015675  915.000000
384.587509  -29.015675  915.000000
386.179802  -29.015675  915.000000
387.772095  -29.015675  915.000000
389.364389  -29.015675  915.000000
390.956682  -29.015675  915.000000
392.548975  -29.015675  915.000000
394.141268  -29.015675  915.000000
395.733562  -29.015675  915.000000
397.325855  -29.015675  915.000000
398.918148  -29.015675  915.000000
400.510441  -29.015675  915.000000
402.102735  -29.015675  915.000000
403.695028  -29.015675  915.000000
405.287321  -29.015675  915.000000
406.879614  -29.015675  915.000000
408.471908  -29.015675  915.000000
409.167886  -28.952253  913.000000
411.656494  -29.015675  915.000000
413.248787  -29.015675  915.000000
413.934324  -28.952253  913.000000
416.433374  -29.015675  915.000000
417.111950  -28.952253  913.000000
418.700763  -28.952253  913.000000
421.210254  -29.015675  915.000000
421.878388  -28.952253  913.000000
424.394840  -29.015675  915.000000
425.056014  -28.952253  913.000000
426.644827  -28.952253  913.000000
428.233639  -28.952253  913.000000
429.822452  -28.952253  913.000000
431.411265  -28.952253  913.000000
433.000078  -28.952253  913.000000
434.588891  -28.952253  913.000000
436.177704  -28.952253  913.000000
437.766516  -28.952253  913.000000
439.355329  -28.952253  913.000000
440.944142  -28.952253  913.000000
442.532955  -28.952253  913.000000
444.121768  -28.952253  913.000000
445.710581  -28.952253  913.000000
447.299393  -28.952253  913.000000
448.888206  -28.952253  913.000000
448.996810  -28.857120  910.000000
450.580402  -28.857120  910.000000
452.163994  -28.857120  910.000000
453.747586  -28.857120  910.000000
455.331179  -28.857120  910.000000
456.914771  -28.857120  910.000000
458.498363  -28.857120  910.000000
459.070786  -28.793698  908.000000
460.650898  -28.793698  908.000000
462.231010  -28.793698  908.000000
463.811121  -28.793698  908.000000
465.391233  -28.793698  908.000000
466.971345  -28.793698  908.000000
468.551457  -28.793698  908.000000
470.131568  -28.793698  908.000000
-509.207171  -32.068873  1070.000000
-477.762618  -31.469455  1050.000000
-474.575581  -31.379542  1047.000000
-472.753580  -31.379542  1047.000000
-472.280953  -31.469455  1050.000000
-470.453731  -31.469455  1050.000000
-467.287577  -31.379542  1047.000000
-466.799288  -31.469455  1050.000000
-464.972066  -31.469455  1050.000000
-461.821573  -31.379542  1047.000000
-459.999572  -31.379542  1047.000000
-458.177571  -31.379542  1047.000000
-456.355570  -31.379542  1047.000000
-454.533569  -31.379542  1047.000000
-452.711568  -31.379542  1047.000000
-450.889566  -31.379542  1047.000000
-447.780839  -31.289629  1044.000000
-445.964058  -31.289629  1044.000000
-444.147278  -31.289629  1044.000000
-440.635744  -31.169746  1040.000000
-438.825925  -31.169746  1040.000000
-437.016105  -31.169746  1040.000000
-435.206286  -31.169746  1040.000000
-433.396466  -31.169746  1040.000000
-431.586646  -31.169746  1040.000000
-429.776827  -31.169746  1040.000000
-427.967007  -31.169746  1040.000000
-427.796253  -31.289629  1044.000000
-425.979473  -31.289629  1044.000000
-425.381551  -31.379542  1047.000000
-423.559550  -31.379542  1047.000000
-421.737548  -31.379542  1047.000000
-419.915547  -31.379542  1047.000000
-418.093546  -31.379542  1047.000000
-416.271545  -31.379542  1047.000000
-414.449544  -31.379542  1047.000000
-412.627543  -31.379542  1047.000000
-410.805542  -31.379542  1047.000000
-410.155413  -31.469455  1050.000000
-408.328191  -31.469455  1050.000000
-406.500970  -31.469455  1050.000000
-404.673748  -31.469455  1050.000000
-402.846526  -31.469455  1050.000000
-402.165074  -31.559368  1053.000000
-401.853363  -31.679251  1057.000000
-400.013960  -31.679251  1057.000000
-400.434772  -31.859077  1063.000000
-398.584927  -31.859077  1063.000000
-396.735083  -31.859077  1063.000000
-394.885238  -31.859077  1063.000000
-393.035394  -31.859077  1063.000000
-391.185549  -31.859077  1063.000000
-389.335705  -31.859077  1063.000000
-386.392297  -31.769164  1060.000000
-384.547673  -31.769164  1060.000000
-382.703049  -31.769164  1060.000000
-379.780524  -31.679251  1057.000000
-377.941121  -31.679251  1057.000000
-377.169178  -31.769164  1060.000000
-375.324554  -31.769164  1060.000000
-373.479930  -31.769164  1060.000000
-372.687104  -31.859077  1063.000000
-370.837260  -31.859077  1063.000000
-368.987415  -31.859077  1063.000000
-367.137571  -31.859077  1063.000000
-365.287726  -31.859077  1063.000000
-364.463576  -31.948990  1066.000000
-362.608511  -31.948990  1066.000000
-360.753446  -31.948990  1066.000000
-361.255125  -32.158786  1073.000000
-359.387878  -32.158786  1073.000000
-358.853420  -32.278670  1077.000000
-356.979213  -32.278670  1077.000000
-355.105005  -32.278670  1077.000000
-353.230798  -32.278670  1077.000000
-351.356590  -32.278670  1077.000000
-348.184398  -32.158786  1073.000000
-347.608176  -32.278670  1077.000000
-345.733968  -32.278670  1077.000000
-342.582658  -32.158786  1073.000000
13.432416  -30.720182  1025.000000
15.216132  -30.720182  1025.000000
16.950093  -30.630269  1022.000000
18.728589  -30.630269  1022.000000
20.446888  -30.540357  1019.000000
22.220163  -30.540357  1019.000000
23.993438  -30.540357  1019.000000
25.766714  -30.540357  1019.000000
36.118914  -28.891957  964.000000
37.914101  -28.981869  967.000000
39.474041  -28.891957  964.000000
41.151604  -28.891957  964.000000
42.829168  -28.891957  964.000000
44.506732  -28.891957  964.000000
46.184295  -28.891957  964.000000
47.712911  -28.802044  961.000000
49.385254  -28.802044  961.000000
51.057597  -28.802044  961.000000
52.729940  -28.802044  961.000000
54.402283  -28.802044  961.000000
56.074626  -28.802044  961.000000
57.626788  -28.742102  959.000000
59.295650  -28.742102  959.000000
60.964513  -28.742102  959.000000
62.633376  -28.742102  959.000000
64.302238  -28.742102  959.000000
65.971101  -28.742102  959.000000
67.639963  -28.742102  959.000000
69.092010  -28.652189  956.000000
72.455591  -28.022800  935.000000
73.924223  -27.962859  933.000000
75.547840  -27.962859  933.000000
77.171457  -27.962859  933.000000
78.795074  -27.962859  933.000000
80.418691  -27.962859  933.000000
82.042308  -27.962859  933.000000
83.396903  -27.872946  930.000000
85.015299  -27.872946  930.000000
86.633695  -27.872946  930.000000
88.252092  -27.872946  930.000000
89.870488  -27.872946  930.000000
91.488885  -27.872946  930.000000
93.107281  -27.872946  930.000000
94.725678  -27.872946  930.000000
96.136882  -27.813004  928.000000
97.962470  -27.872946  930.000000
99.580867  -27.872946  930.000000
101.199263  -27.872946  930.000000
102.817660  -27.872946  930.000000
104.436056  -27.872946  930.000000
106.054452  -27.872946  930.000000
107.672849  -27.872946  930.000000
109.291245  -27.872946  930.000000
110.909642  -27.872946  930.000000
112.528038  -27.872946  930.000000
113.900958  -27.813004  928.000000
115.515874  -27.813004  928.000000
117.130790  -27.813004  928.000000
118.745706  -27.813004  928.000000
120.360622  -27.813004  928.000000
121.975538  -27.813004  928.000000
123.590454  -27.813004  928.000000
125.205370  -27.813004  928.000000
126.820286  -27.813004  928.000000
128.435202  -27.813004  928.000000
130.050118  -27.813004  928.000000
131.665034  -27.813004  928.000000
133.279950  -27.813004  928.000000
134.894866  -27.813004  928.000000
136.509782  -27.813004  928.000000
138.124698  -27.813004  928.000000
139.739614  -27.813004  928.000000
141.354530  -27.813004  928.000000
142.969446  -27.813004  928.000000
144.584362  -27.813004  928.000000
146.199278  -27.813004  928.000000
147.814194  -27.813004  928.000000
149.429110  -27.813004  928.000000
151.044026  -27.813004  928.000000
152.658942  -27.813004  928.000000
154.273858  -27.813004  928.000000
155.384823  -27.723091  925.000000
156.994519  -27.723091  925.000000
158.604214  -27.723091  925.000000
160.213910  -27.723091  925.000000
161.823605  -27.723091  925.000000
163.433300  -27.723091  925.000000
165.042996  -27.723091  925.000000
167.193186  -27.813004  928.000000
168.262386  -27.723091  925.000000
169.872082  -27.723091  925.000000
172.037934  -27.813004  928.000000
173.652850  -27.813004  928.000000
175.267766  -27.813004  928.000000
176.882682  -27.813004  928.000000
178.497598  -27.813004  928.000000
180.112514  -27.813004  928.000000
181.727430  -27.813004  928.000000
183.342346  -27.813004  928.000000
184.957262  -27.813004  928.000000
186.572178  -27.813004  928.000000
188.187094  -27.813004  928.000000
189.802010  -27.813004  928.000000
191.416926  -27.813004  928.000000
193.031842  -27.813004  928.000000
194.646758  -27.813004  928.000000
196.261674  -27.813004  928.000000
197.876590  -27.813004  928.000000
199.491506  -27.813004  928.000000
200.456294  -27.723091  925.000000
202.065989  -27.723091  925.000000
203.675684  -27.723091  925.000000
205.285380  -27.723091  925.000000
206.895075  -27.723091  925.000000
208.504770  -27.723091  925.000000
210.114466  -27.723091  925.000000
211.724161  -27.723091  925.000000
213.333856  -27.723091  925.000000
214.943552  -27.723091  925.000000
216.553247  -27.723091  925.000000
217.691239  -27.663149  923.000000
219.297454  -27.663149  923.000000
220.903669  -27.663149  923.000000
222.992029  -27.723091  925.000000
224.601724  -27.723091  925.000000
226.211419  -27.723091  925.000000
227.821115  -27.723091  925.000000
228.934743  -27.663149  923.000000
230.540958  -27.663149  923.000000
232.147173  -27.663149  923.000000
233.753388  -27.663149  923.000000
235.359603  -27.663149  923.000000
236.965818  -27.663149  923.000000
238.572033  -27.663149  923.000000
240.178248  -27.663149  923.000000
241.784463  -27.663149  923.000000
243.390678  -27.663149  923.000000
244.996893  -27.663149  923.000000
246.603108  -27.663149  923.000000
248.209323  -27.663149  923.000000
249.815538  -27.663149  923.000000
251.421753  -27.663149  923.000000
253.027968  -27.663149  923.000000
254.634183  -27.663149  923.000000
256.240397  -27.663149  923.000000
257.846612  -27.663149  923.000000
259.452827  -27.663149  923.000000
261.059042  -27.663149  923.000000
262.665257  -27.663149  923.000000
264.271472  -27.663149  923.000000
265.877687  -27.663149  923.000000
266.614507  -27.573237  920.000000
268.215501  -27.573237  920.000000
269.816496  -27.573237  920.000000
271.417490  -27.573237  920.000000
273.018484  -27.573237  920.000000
274.619478  -27.573237  920.000000
276.220473  -27.573237  920.000000
277.821467  -27.573237  920.000000
279.422461  -27.573237  920.000000
281.023456  -27.573237  920.000000
282.624450  -27.573237  920.000000
284.225444  -27.573237  920.000000
285.826439  -27.573237  920.000000
287.427433  -27.573237  920.000000
289.028427  -27.573237  920.000000
290.629421  -27.573237  920.000000
292.230416  -27.573237  920.000000
293.831410  -27.573237  920.000000
295.432404  -27.573237  920.000000
297.033399  -27.573237  920.000000
298.634393  -27.573237  920.000000
300.235387  -27.573237  920.000000
301.836382  -27.573237  920.000000
303.437376  -27.573237  920.000000
305.038370  -27.573237  920.000000
305.972757  -27.513295  918.000000
307.570271  -27.513295  918.000000
309.167785  -27.513295  918.000000
310.765299  -27.513295  918.000000
312.362813  -27.513295  918.000000
313.960327  -27.513295  918.000000
315.557841  -27.513295  918.000000
317.155354  -27.513295  918.000000
319.447319  -27.573237  920.000000
320.350382  -27.513295  918.000000
321.947896  -27.513295  918.000000
323.545410  -27.513295  918.000000
325.851296  -27.573237  920.000000
327.452291  -27.573237  920.000000
329.053285  -27.573237  920.000000
330.654279  -27.573237  920.000000
332.255273  -27.573237  920.000000
333.856268  -27.573237  920.000000
335.457262  -27.573237  920.000000
336.325521  -27.513295  918.000000
338.659251  -27.573237  920.000000
340.260245  -27.573237  920.000000
341.861239  -27.573237  920.000000
343.462234  -27.573237  920.000000
344.313090  -27.513295  918.000000
345.910604  -27.513295  918.000000
347.508118  -27.513295  918.000000
349.105632  -27.513295  918.000000
350.703146  -27.513295  918.000000
352.300660  -27.513295  918.000000
353.898174  -27.513295  918.000000
355.495688  -27.513295  918.000000
357.093202  -27.513295  918.000000
358.690715  -27.513295  918.000000
360.288229  -27.513295  918.000000
361.885743  -27.513295  918.000000
363.483257  -27.513295  918.000000
365.080771  -27.513295  918.000000
366.678285  -27.513295  918.000000
368.275799  -27.513295  918.000000
369.873313  -27.513295  918.000000
371.470826  -27.513295  918.000000
373.068340  -27.513295  918.000000
374.665854  -27.513295  918.000000
376.263368  -27.513295  918.000000
377.860882  -27.513295  918.000000
379.458396  -27.513295  918.000000
381.055910  -27.513295  918.000000
382.653424  -27.513295  918.000000
382.995216  -27.423382  915.000000
384.587509  -27.423382  915.000000
386.179802  -27.423382  915.000000
387.772095  -27.423382  915.000000
389.364389  -27.423382  915.000000
390.956682  -27.423382  915.000000
392.548975  -27.423382  915.000000
394.141268  -27.423382  915.000000
395.733562  -27.423382  915.000000
397.325855  -27.423382  915.000000
398.918148  -27.423382  915.000000
400.510441  -27.423382  915.000000
402.102735  -27.423382  915.000000
403.695028  -27.423382  915.000000
405.287321  -27.423382  915.000000
406.879614  -27.423382  915.000000
408.471908  -27.423382  915.000000
410.064201  -27.423382  915.000000
411.656494  -27.423382  915.000000
413.248787  -27.423382  915.000000
414.841081  -27.423382  915.000000
416.433374  -27.423382  915.000000
418.025667  -27.423382  915.000000
418.700763  -27.363440  913.000000
421.210254  -27.423382  915.000000
422.802547  -27.423382  915.000000
424.394840  -27.423382  915.000000
425.987133  -27.423382  915.000000
426.644827  -27.363440  913.000000
428.233639  -27.363440  913.000000
429.822452  -27.363440  913.000000
431.411265  -27.363440  913.000000
433.000078  -27.363440  913.000000
435.540893  -27.423382  915.000000
437.133186  -27.423382  915.000000
437.766516  -27.363440  913.000000
439.355329  -27.363440  913.000000
440.944142  -27.363440  913.000000
442.532955  -27.363440  913.000000
444.121768  -27.363440  913.000000
445.710581  -27.363440  913.000000
447.299393  -27.363440  913.000000
448.888206  -27.363440  913.000000
450.477019  -27.363440  913.000000
452.065832  -27.363440  913.000000
452.163994  -27.273528  910.000000
453.747586  -27.273528  910.000000
455.331179  -27.273528  910.000000
456.914771  -27.273528  910.000000
458.498363  -27.273528  910.000000
459.070786  -27.213586  908.000000
460.650898  -27.213586  908.000000
462.231010  -27.213586  908.000000
463.811121  -27.213586  908.000000
465.391233  -27.213586  908.000000
466.971345  -27.213586  908.000000
468.551457  -27.213586  908.000000
470.131568  -27.213586  908.000000
-468.626510  -29.642233  1050.000000
-466.799288  -29.642233  1050.000000
-464.972066  -29.642233  1050.000000
-463.144844  -29.642233  1050.000000
-459.999572  -29.557541  1047.000000
-458.177571  -29.557541  1047.000000
-457.663179  -29.642233  1050.000000
-455.835957  -29.642233  1050.000000
-454.008735  -29.642233  1050.000000
-452.181514  -29.642233  1050.000000
-449.067565  -29.557541  1047.000000
-447.245564  -29.557541  1047.000000
-445.423563  -29.557541  1047.000000
-442.330497  -29.472849  1044.000000
-440.513717  -29.472849  1044.000000
-438.696936  -29.472849  1044.000000
-435.206286  -29.359926  1040.000000
-435.063375  -29.472849  1044.000000
-433.246595  -29.472849  1044.000000
-431.429814  -29.472849  1044.000000
-429.613034  -29.472849  1044.000000
-427.796253  -29.472849  1044.000000
-425.979473  -29.472849  1044.000000
-425.381551  -29.557541  1047.000000
-423.559550  -29.557541  1047.000000
-421.737548  -29.557541  1047.000000
-419.915547  -29.557541  1047.000000
-418.093546  -29.557541  1047.000000
-416.271545  -29.557541  1047.000000
-414.449544  -29.557541  1047.000000
-412.627543  -29.557541  1047.000000
-410.805542  -29.557541  1047.000000
-410.155413  -29.642233  1050.000000
-408.328191  -29.642233  1050.000000
-406.500970  -29.642233  1050.000000
-405.829959  -29.726925  1053.000000
-403.997516  -29.726925  1053.000000
-404.838536  -29.924540  1060.000000
-404.134461  -30.009232  1063.000000
-402.284616  -30.009232  1063.000000
-401.564879  -30.093924  1066.000000
-399.709814  -30.093924  1066.000000
-397.854749  -30.093924  1066.000000
-395.999684  -30.093924  1066.000000
-394.144619  -30.093924  1066.000000
-392.289554  -30.093924  1066.000000
-390.434488  -30.093924  1066.000000
-388.579423  -30.093924  1066.000000
-385.636016  -30.009232  1063.000000
-379.013802  -29.924540  1060.000000
-377.169178  -29.924540  1060.000000
-376.386793  -30.009232  1063.000000
-374.536949  -30.009232  1063.000000
-372.687104  -30.009232  1063.000000
-370.837260  -30.009232  1063.000000
-368.987415  -30.009232  1063.000000
-367.137571  -30.009232  1063.000000
-366.318642  -30.093924  1066.000000
-364.463576  -30.093924  1066.000000
-363.969144  -30.206847  1070.000000
-362.107118  -30.206847  1070.000000
-362.601835  -30.404462  1077.000000
-360.727628  -30.404462  1077.000000
-359.853012  -30.489154  1080.000000
-353.230798  -30.404462  1077.000000
15.216132  -28.936466  1025.000000
16.950093  -28.851774  1022.000000
18.728589  -28.851774  1022.000000
20.507085  -28.851774  1022.000000
22.285581  -28.851774  1022.000000
23.993438  -28.767082  1019.000000
25.766714  -28.767082  1019.000000
36.231317  -27.299085  967.000000
37.914101  -27.299085  967.000000
39.596885  -27.299085  967.000000
41.279670  -27.299085  967.000000
42.962454  -27.299085  967.000000
44.506732  -27.214393  964.000000
46.184295  -27.214393  964.000000
47.861859  -27.214393  964.000000
49.539422  -27.214393  964.000000
51.216986  -27.214393  964.000000
52.894550  -27.214393  964.000000
54.402283  -27.129701  961.000000
56.074626  -27.129701  961.000000
57.746969  -27.129701  961.000000
59.419312  -27.129701  961.000000
61.091655  -27.129701  961.000000
62.763998  -27.129701  961.000000
64.436341  -27.129701  961.000000
66.108684  -27.129701  961.000000
67.639963  -27.073240  959.000000
69.308826  -27.073240  959.000000
73.924223  -26.339241  933.000000
75.547840  -26.339241  933.000000
77.171457  -26.339241  933.000000
78.795074  -26.339241  933.000000
80.418691  -26.339241  933.000000
82.042308  -26.339241  933.000000
83.396903  -26.254549  930.000000
85.015299  -26.254549  930.000000
86.633695  -26.254549  930.000000
88.252092  -26.254549  930.000000
89.870488  -26.254549  930.000000
91.488885  -26.254549  930.000000
93.107281  -26.254549  930.000000
94.725678  -26.254549  930.000000
96.344074  -26.254549  930.000000
97.962470  -26.254549  930.000000
99.580867  -26.254549  930.000000
101.199263  -26.254549  930.000000
102.817660  -26.254549  930.000000
104.436056  -26.254549  930.000000
106.054452  -26.254549  930.000000
107.672849  -26.254549  930.000000
109.291245  -26.254549  930.000000
110.909642  -26.254549  930.000000
112.528038  -26.254549  930.000000
114.146435  -26.254549  930.000000
115.515874  -26.198088  928.000000
117.130790  -26.198088  928.000000
118.745706  -26.198088  928.000000
120.360622  -26.198088  928.000000
121.975538  -26.198088  928.000000
123.590454  -26.198088  928.000000
125.205370  -26.198088  928.000000
126.820286  -26.198088  928.000000
128.435202  -26.198088  928.000000
130.050118  -26.198088  928.000000
131.665034  -26.198088  928.000000
133.567192  -26.254549  930.000000
135.185588  -26.254549  930.000000
136.803984  -26.254549  930.000000
138.124698  -26.198088  928.000000
139.739614  -26.198088  928.000000
