-328.815491  198.192600  1047.000000
-326.993490  198.192600  1047.000000
-325.171489  198.192600  1047.000000
-324.275990  198.760487  1050.000000
-322.448769  198.760487  1050.000000
-320.621547  198.760487  1050.000000
-318.794325  198.760487  1050.000000
-317.872724  199.328374  1053.000000
-316.040281  199.328374  1053.000000
-315.401411  200.085557  1057.000000
-313.562008  200.085557  1057.000000
-312.607342  200.653444  1060.000000
-310.762718  200.653444  1060.000000
-309.792391  201.221331  1063.000000
-307.942546  201.221331  1063.000000
-306.092702  201.221331  1063.000000
-305.101492  201.789218  1066.000000
-303.246427  201.789218  1066.000000
-301.391362  201.789218  1066.000000
-300.660260  202.546401  1070.000000
-299.635986  203.114288  1073.000000
-297.768740  203.114288  1073.000000
-295.901493  203.114288  1073.000000
-294.034246  203.114288  1073.000000
-292.167000  203.114288  1073.000000
-290.299753  203.114288  1073.000000
-289.507744  203.871471  1077.000000
-287.633537  203.871471  1077.000000
-285.759329  203.871471  1077.000000
-283.885122  203.871471  1077.000000
-282.010914  203.871471  1077.000000
-280.136707  203.871471  1077.000000
-278.262499  203.871471  1077.000000
-276.388292  203.871471  1077.000000
-275.278748  204.439358  1080.000000
-273.399319  204.439358  1080.000000
-271.519891  204.439358  1080.000000
-269.640463  204.439358  1080.000000
-267.761035  204.439358  1080.000000
-265.143047  203.871471  1077.000000
-264.002179  204.439358  1080.000000
-262.122751  204.439358  1080.000000
-260.243323  204.439358  1080.000000
-258.363895  204.439358  1080.000000
-256.484467  204.439358  1080.000000
-254.605038  204.439358  1080.000000
-253.427626  205.007245  1083.000000
-251.542977  205.007245  1083.000000
-249.658329  205.007245  1083.000000
-248.688818  205.764428  1087.000000
-246.797208  205.764428  1087.000000
-244.905599  205.764428  1087.000000
-243.684681  206.332315  1090.000000
-241.787851  206.332315  1090.000000
-239.891021  206.332315  1090.000000
-237.994190  206.332315  1090.000000
-236.963773  207.089498  1094.000000
-235.059982  207.089498  1094.000000
-233.156190  207.089498  1094.000000
-231.252399  207.089498  1094.000000
-229.348608  207.089498  1094.000000
-227.444817  207.089498  1094.000000
-225.541026  207.089498  1094.000000
-223.637235  207.089498  1094.000000
-221.733444  207.089498  1094.000000
-219.829653  207.089498  1094.000000
-217.925862  207.089498  1094.000000
-216.022071  207.089498  1094.000000
-214.118280  207.089498  1094.000000
-212.214489  207.089498  1094.000000
-210.310698  207.089498  1094.000000
-208.406907  207.089498  1094.000000
-206.503116  207.089498  1094.000000
-204.599325  207.089498  1094.000000
-202.695534  207.089498  1094.000000
-200.791743  207.089498  1094.000000
-198.887951  207.089498  1094.000000
-196.263926  206.332315  1090.000000
-194.367096  206.332315  1090.000000
-193.176578  207.089498  1094.000000
-191.797301  207.657385  1097.000000
-189.888290  207.657385  1097.000000
-187.979278  207.657385  1097.000000
-186.070266  207.657385  1097.000000
-184.161255  207.657385  1097.000000
-182.252243  207.657385  1097.000000
-180.343231  207.657385  1097.000000
-178.434219  207.657385  1097.000000
-176.525208  207.657385  1097.000000
-174.138668  207.089498  1094.000000
-172.234877  207.089498  1094.000000
-170.331086  207.089498  1094.000000
-168.427295  207.089498  1094.000000
-166.523504  207.089498  1094.000000
-164.619712  207.089498  1094.000000
-162.715921  207.089498  1094.000000
-160.812130  207.089498  1094.000000
-159.344103  207.657385  1097.000000
-157.435091  207.657385  1097.000000
-155.526079  207.657385  1097.000000
-152.261230  208.414568  1101.000000
-145.981021  207.657385  1097.000000
-144.072009  207.657385  1097.000000
-142.681367  208.414568  1101.000000
-141.148952  208.982455  1104.000000
-139.227759  208.982455  1104.000000
-136.933450  208.414568  1101.000000
-135.017477  208.414568  1101.000000
-133.101505  208.414568  1101.000000
-123.858213  208.982455  1104.000000
-121.605670  208.414568  1101.000000
-116.173441  208.982455  1104.000000
-114.252248  208.982455  1104.000000
-112.331054  208.982455  1104.000000
-110.409861  208.982455  1104.000000
-108.488668  208.982455  1104.000000
-99.240973  209.739638  1108.000000
-97.312819  209.739638  1108.000000
-95.384665  209.739638  1108.000000
-84.892647  207.657385  1097.000000
-82.983635  207.657385  1097.000000
-80.852906  207.089498  1094.000000
-78.949115  207.089498  1094.000000
-50.530436  207.657385  1097.000000
23.287056  187.213449  989.000000
24.932266  186.645562  986.000000
26.648115  186.645562  986.000000
28.363963  186.645562  986.000000
30.018797  186.266971  984.000000
31.731165  186.266971  984.000000
33.341571  185.699084  981.000000
35.155901  186.266971  984.000000
36.755865  185.699084  981.000000
38.580637  186.266971  984.000000
40.170160  185.699084  981.000000
41.877307  185.699084  981.000000
43.584454  185.699084  981.000000
45.291601  185.699084  981.000000
46.998749  185.699084  981.000000
48.705896  185.699084  981.000000
50.413043  185.699084  981.000000
51.960801  185.131197  978.000000
53.662728  185.131197  978.000000
55.364654  185.131197  978.000000
56.891530  184.563309  975.000000
58.287783  183.616831  970.000000
59.790296  183.048944  967.000000
60.964513  181.534578  959.000000
62.633376  181.534578  959.000000
64.101084  180.966691  956.000000
65.764726  180.966691  956.000000
67.216773  180.398804  953.000000
68.875194  180.398804  953.000000
70.533615  180.398804  953.000000
72.192036  180.398804  953.000000
73.850458  180.398804  953.000000
75.508879  180.398804  953.000000
77.167300  180.398804  953.000000
78.825722  180.398804  953.000000
80.484143  180.398804  953.000000
82.142564  180.398804  953.000000
83.800985  180.398804  953.000000
85.280058  180.020213  951.000000
86.934999  180.020213  951.000000
88.589940  180.020213  951.000000
90.244881  180.020213  951.000000
91.899822  180.020213  951.000000
93.554763  180.020213  951.000000
95.209704  180.020213  951.000000
96.864644  180.020213  951.000000
98.519585  180.020213  951.000000
100.174526  180.020213  951.000000
101.829467  180.020213  951.000000
103.484408  180.020213  951.000000
105.139349  180.020213  951.000000
106.794290  180.020213  951.000000
108.449230  180.020213  951.000000
110.104171  180.020213  951.000000
111.759112  180.020213  951.000000
113.414053  180.020213  951.000000
115.068994  180.020213  951.000000
116.723935  180.020213  951.000000
118.378876  180.020213  951.000000
120.033816  180.020213  951.000000
121.304881  179.452325  948.000000
123.343698  180.020213  951.000000
124.998639  180.020213  951.000000
126.653580  180.020213  951.000000
128.308521  180.020213  951.000000
129.963461  180.020213  951.000000
131.618402  180.020213  951.000000
133.273343  180.020213  951.000000
134.928284  180.020213  951.000000
136.583225  180.020213  951.000000
138.238166  180.020213  951.000000
139.893107  180.020213  951.000000
141.548047  180.020213  951.000000
143.202988  180.020213  951.000000
144.857929  180.020213  951.000000
146.512870  180.020213  951.000000
148.167811  180.020213  951.000000
149.822752  180.020213  951.000000
151.477693  180.020213  951.000000
153.132633  180.020213  951.000000
154.787574  180.020213  951.000000
155.949006  179.452325  948.000000
158.097456  180.020213  951.000000
159.248446  179.452325  948.000000
160.898166  179.452325  948.000000
162.547887  179.452325  948.000000
164.717219  180.020213  951.000000
165.847327  179.452325  948.000000
167.497047  179.452325  948.000000
169.146767  179.452325  948.000000
170.796488  179.452325  948.000000
172.446208  179.452325  948.000000
174.095928  179.452325  948.000000
175.745648  179.452325  948.000000
177.395368  179.452325  948.000000
179.045089  179.452325  948.000000
180.694809  179.452325  948.000000
182.344529  179.452325  948.000000
183.994249  179.452325  948.000000
185.643970  179.452325  948.000000
187.293690  179.452325  948.000000
188.943410  179.452325  948.000000
190.593130  179.452325  948.000000
192.242850  179.452325  948.000000
193.892571  179.452325  948.000000
195.542291  179.452325  948.000000
197.192011  179.452325  948.000000
198.841731  179.452325  948.000000
200.491452  179.452325  948.000000
201.714714  179.073734  946.000000
203.790892  179.452325  948.000000
205.440612  179.452325  948.000000
207.090332  179.452325  948.000000
208.740053  179.452325  948.000000
210.389773  179.452325  948.000000
212.039493  179.452325  948.000000
213.689213  179.452325  948.000000
215.338934  179.452325  948.000000
216.988654  179.452325  948.000000
218.638374  179.452325  948.000000
220.288094  179.452325  948.000000
221.937814  179.452325  948.000000
223.587535  179.452325  948.000000
225.237255  179.452325  948.000000
226.886975  179.452325  948.000000
228.536695  179.452325  948.000000
229.700790  179.073734  946.000000
231.347030  179.073734  946.000000
232.993270  179.073734  946.000000
234.639510  179.073734  946.000000
236.285749  179.073734  946.000000
237.931989  179.073734  946.000000
239.578229  179.073734  946.000000
241.224469  179.073734  946.000000
242.870709  179.073734  946.000000
244.516948  179.073734  946.000000
246.683618  179.452325  948.000000
248.333338  179.452325  948.000000
249.983058  179.452325  948.000000
251.632778  179.452325  948.000000
253.282499  179.452325  948.000000
254.932219  179.452325  948.000000
256.581939  179.452325  948.000000
258.231659  179.452325  948.000000
259.881379  179.452325  948.000000
261.531100  179.452325  948.000000
263.180820  179.452325  948.000000
264.830540  179.452325  948.000000
265.918066  179.073734  946.000000
268.129981  179.452325  948.000000
269.779701  179.452325  948.000000
271.429421  179.452325  948.000000
273.079141  179.452325  948.000000
274.728861  179.452325  948.000000
276.378582  179.452325  948.000000
277.441744  179.073734  946.000000
279.087984  179.073734  946.000000
280.734224  179.073734  946.000000
282.380464  179.073734  946.000000
284.026703  179.073734  946.000000
285.672943  179.073734  946.000000
287.319183  179.073734  946.000000
288.965423  179.073734  946.000000
290.611663  179.073734  946.000000
292.257902  179.073734  946.000000
293.904142  179.073734  946.000000
295.550382  179.073734  946.000000
297.196622  179.073734  946.000000
298.842862  179.073734  946.000000
300.489101  179.073734  946.000000
302.135341  179.073734  946.000000
303.781581  179.073734  946.000000
305.427821  179.073734  946.000000
307.074061  179.073734  946.000000
308.720300  179.073734  946.000000
310.366540  179.073734  946.000000
312.012780  179.073734  946.000000
313.659020  179.073734  946.000000
315.305260  179.073734  946.000000
316.951499  179.073734  946.000000
318.597739  179.073734  946.000000
320.243979  179.073734  946.000000
321.890219  179.073734  946.000000
323.536459  179.073734  946.000000
325.182698  179.073734  946.000000
326.828938  179.073734  946.000000
328.475178  179.073734  946.000000
330.121418  179.073734  946.000000
331.767658  179.073734  946.000000
333.413897  179.073734  946.000000
335.060137  179.073734  946.000000
336.706377  179.073734  946.000000
338.352617  179.073734  946.000000
339.998857  179.073734  946.000000
341.645096  179.073734  946.000000
343.291336  179.073734  946.000000
344.937576  179.073734  946.000000
346.583816  179.073734  946.000000
348.230056  179.073734  946.000000
349.876295  179.073734  946.000000
351.522535  179.073734  946.000000
353.168775  179.073734  946.000000
354.815015  179.073734  946.000000
356.461255  179.073734  946.000000
358.107494  179.073734  946.000000
359.753734  179.073734  946.000000
361.399974  179.073734  946.000000
363.046214  179.073734  946.000000
364.692454  179.073734  946.000000
366.338693  179.073734  946.000000
367.984933  179.073734  946.000000
369.631173  179.073734  946.000000
371.277413  179.073734  946.000000
372.923653  179.073734  946.000000
374.569892  179.073734  946.000000
376.216132  179.073734  946.000000
377.862372  179.073734  946.000000
379.508612  179.073734  946.000000
381.154852  179.073734  946.000000
381.587134  178.505847  943.000000
383.228154  178.505847  943.000000
386.093571  179.073734  946.000000
386.510192  178.505847  943.000000
388.151211  178.505847  943.000000
389.792230  178.505847  943.000000
391.433249  178.505847  943.000000
393.074269  178.505847  943.000000
394.715288  178.505847  943.000000
396.356307  178.505847  943.000000
397.997326  178.505847  943.000000
399.638345  178.505847  943.000000
401.279364  178.505847  943.000000
401.638558  177.937960  940.000000
403.274357  177.937960  940.000000
404.910155  177.937960  940.000000
406.545954  177.937960  940.000000
408.181752  177.937960  940.000000
409.817551  177.937960  940.000000
411.453349  177.937960  940.000000
413.089148  177.937960  940.000000
414.724947  177.937960  940.000000
416.360745  177.937960  940.000000
417.996544  177.937960  940.000000
419.632342  177.937960  940.000000
421.268141  177.937960  940.000000
422.903939  177.937960  940.000000
424.539738  177.937960  940.000000
426.175536  177.937960  940.000000
427.811335  177.937960  940.000000
429.447133  177.937960  940.000000
431.082932  177.937960  940.000000
431.798052  177.559368  938.000000
433.430370  177.559368  938.000000
435.062688  177.559368  938.000000
436.695007  177.559368  938.000000
438.327325  177.559368  938.000000
439.959643  177.559368  938.000000
441.591961  177.559368  938.000000
443.224279  177.559368  938.000000
444.856597  177.559368  938.000000
446.488915  177.559368  938.000000
448.121233  177.559368  938.000000
449.753551  177.559368  938.000000
451.385870  177.559368  938.000000
453.018188  177.559368  938.000000
454.650506  177.559368  938.000000
456.282824  177.559368  938.000000
457.915142  177.559368  938.000000
459.547460  177.559368  938.000000
461.179778  177.559368  938.000000
462.812096  177.559368  938.000000
464.444414  177.559368  938.000000
466.076732  177.559368  938.000000
467.709051  177.559368  938.000000
469.341369  177.559368  938.000000
469.467374  176.991481  935.000000
471.094472  176.991481  935.000000
472.721569  176.991481  935.000000
474.348667  176.991481  935.000000
475.975764  176.991481  935.000000
477.602862  176.991481  935.000000
479.229959  176.991481  935.000000
480.857057  176.991481  935.000000
482.484154  176.991481  935.000000
484.111252  176.991481  935.000000
-568.519499  204.981535  1073.000000
-566.652253  204.981535  1073.000000
-564.785006  204.981535  1073.000000
-561.343898  204.408427  1070.000000
-561.050513  204.981535  1073.000000
-559.183266  204.981535  1073.000000
-557.316020  204.981535  1073.000000
-555.448773  204.981535  1073.000000
-551.714280  204.981535  1073.000000
-548.309716  204.408427  1070.000000
-544.404895  203.644283  1066.000000
-542.549830  203.644283  1066.000000
-539.173110  203.071176  1063.000000
-537.323265  203.071176  1063.000000
-535.473421  203.071176  1063.000000
-532.117583  202.498068  1060.000000
-528.772187  201.924960  1057.000000
-526.932783  201.924960  1057.000000
-523.106272  201.160817  1053.000000
-521.273830  201.160817  1053.000000
-519.441387  201.160817  1053.000000
-517.608945  201.160817  1053.000000
-515.776502  201.160817  1053.000000
-513.944060  201.160817  1053.000000
-510.652610  200.587709  1050.000000
-508.825388  200.587709  1050.000000
-506.998167  200.587709  1050.000000
-505.170945  200.587709  1050.000000
-503.343723  200.587709  1050.000000
-501.516501  200.587709  1050.000000
-499.689280  200.587709  1050.000000
-497.862058  200.587709  1050.000000
-496.034836  200.587709  1050.000000
-492.795592  200.014601  1047.000000
-490.973591  200.014601  1047.000000
-489.151590  200.014601  1047.000000
-487.329589  200.014601  1047.000000
-485.507588  200.014601  1047.000000
-482.299668  199.441493  1044.000000
-480.482888  199.441493  1044.000000
-478.666107  199.441493  1044.000000
-476.849327  199.441493  1044.000000
-473.212498  198.677350  1040.000000
-471.402679  198.677350  1040.000000
-469.592859  198.677350  1040.000000
-467.783039  198.677350  1040.000000
-464.629066  198.104242  1037.000000
-462.824467  198.104242  1037.000000
-461.019868  198.104242  1037.000000
-459.215269  198.104242  1037.000000
-457.410670  198.104242  1037.000000
-456.924121  198.677350  1040.000000
-453.801472  198.104242  1037.000000
-453.304482  198.677350  1040.000000
-451.494662  198.677350  1040.000000
-449.684843  198.677350  1040.000000
-447.875023  198.677350  1040.000000
-447.780839  199.441493  1044.000000
-442.445564  198.677350  1040.000000
-440.635744  198.677350  1040.000000
-438.825925  198.677350  1040.000000
-437.016105  198.677350  1040.000000
-435.206286  198.677350  1040.000000
-433.396466  198.677350  1040.000000
-431.586646  198.677350  1040.000000
-429.776827  198.677350  1040.000000
-427.967007  198.677350  1040.000000
-426.157187  198.677350  1040.000000
-424.347368  198.677350  1040.000000
-422.537548  198.677350  1040.000000
-420.727728  198.677350  1040.000000
-418.917909  198.677350  1040.000000
-417.108089  198.677350  1040.000000
-415.298269  198.677350  1040.000000
-413.488450  198.677350  1040.000000
-411.678630  198.677350  1040.000000
-409.868810  198.677350  1040.000000
-408.058991  198.677350  1040.000000
-406.249171  198.677350  1040.000000
-405.994887  199.441493  1044.000000
-404.178107  199.441493  1044.000000
-403.517537  200.014601  1047.000000
-401.695536  200.014601  1047.000000
-399.873535  200.014601  1047.000000
-398.051534  200.014601  1047.000000
-396.229533  200.014601  1047.000000
-394.407532  200.014601  1047.000000
-393.710417  200.587709  1050.000000
-391.883196  200.587709  1050.000000
-390.055974  200.587709  1050.000000
-388.228752  200.587709  1050.000000
-386.401530  200.587709  1050.000000
-384.574308  200.587709  1050.000000
-382.747087  200.587709  1050.000000
-382.008207  201.160817  1053.000000
-380.175765  201.160817  1053.000000
-378.343323  201.160817  1053.000000
-375.438200  200.587709  1050.000000
-373.610978  200.587709  1050.000000
-369.956534  200.587709  1050.000000
-368.129313  200.587709  1050.000000
-366.302091  200.587709  1050.000000
-364.474869  200.587709  1050.000000
-362.647647  200.587709  1050.000000
-360.820426  200.587709  1050.000000
-358.993204  200.587709  1050.000000
-357.165982  200.587709  1050.000000
-356.354014  201.160817  1053.000000
-353.511539  200.587709  1050.000000
-352.689129  201.160817  1053.000000
-350.856687  201.160817  1053.000000
-348.029873  200.587709  1050.000000
-346.202651  200.587709  1050.000000
-344.375430  200.587709  1050.000000
-342.548208  200.587709  1050.000000
-340.720986  200.587709  1050.000000
-338.893764  200.587709  1050.000000
-337.066543  200.587709  1050.000000
-334.281494  200.014601  1047.000000
-332.459493  200.014601  1047.000000
-330.637492  200.014601  1047.000000
-328.815491  200.014601  1047.000000
-326.993490  200.014601  1047.000000
-325.171489  200.014601  1047.000000
-324.275990  200.587709  1050.000000
-322.448769  200.587709  1050.000000
-320.621547  200.587709  1050.000000
-318.794325  200.587709  1050.000000
-317.872724  201.160817  1053.000000
-316.040281  201.160817  1053.000000
-315.401411  201.924960  1057.000000
-313.562008  201.924960  1057.000000
-312.607342  202.498068  1060.000000
-310.762718  202.498068  1060.000000
-308.918094  202.498068  1060.000000
-307.942546  203.071176  1063.000000
-306.092702  203.071176  1063.000000
-304.242857  203.071176  1063.000000
-302.393013  203.071176  1063.000000
-301.391362  203.644283  1066.000000
-299.536296  203.644283  1066.000000
-298.798234  204.408427  1070.000000
-296.936208  204.408427  1070.000000
-295.901493  204.981535  1073.000000
-294.034246  204.981535  1073.000000
-292.167000  204.981535  1073.000000
-290.299753  204.981535  1073.000000
-288.432506  204.981535  1073.000000
-286.565260  204.981535  1073.000000
-285.759329  205.745679  1077.000000
-283.885122  205.745679  1077.000000
-282.010914  205.745679  1077.000000
-280.136707  205.745679  1077.000000
-278.262499  205.745679  1077.000000
-276.388292  205.745679  1077.000000
-274.514084  205.745679  1077.000000
-272.639877  205.745679  1077.000000
-270.765669  205.745679  1077.000000
-268.891462  205.745679  1077.000000
-267.017255  205.745679  1077.000000
-265.143047  205.745679  1077.000000
-263.268840  205.745679  1077.000000
-261.394632  205.745679  1077.000000
-260.243323  206.318786  1080.000000
-258.363895  206.318786  1080.000000
-256.484467  206.318786  1080.000000
-254.605038  206.318786  1080.000000
-252.725610  206.318786  1080.000000
-250.846182  206.318786  1080.000000
-248.966754  206.318786  1080.000000
-247.773680  206.891894  1083.000000
-245.889031  206.891894  1083.000000
-244.004382  206.891894  1083.000000
-243.013989  207.656038  1087.000000
-241.122380  207.656038  1087.000000
-239.891021  208.229145  1090.000000
-237.994190  208.229145  1090.000000
-236.097360  208.229145  1090.000000
-235.059982  208.993289  1094.000000
-233.156190  208.993289  1094.000000
-231.252399  208.993289  1094.000000
-229.348608  208.993289  1094.000000
-227.444817  208.993289  1094.000000
-225.541026  208.993289  1094.000000
-223.637235  208.993289  1094.000000
-221.733444  208.993289  1094.000000
-219.829653  208.993289  1094.000000
-217.925862  208.993289  1094.000000
-216.022071  208.993289  1094.000000
-214.118280  208.993289  1094.000000
-212.214489  208.993289  1094.000000
-209.541737  208.229145  1090.000000
-207.644907  208.229145  1090.000000
-205.748077  208.229145  1090.000000
-204.599325  208.993289  1094.000000
-201.954416  208.229145  1090.000000
-200.057586  208.229145  1090.000000
-198.160756  208.229145  1090.000000
-196.263926  208.229145  1090.000000
-194.367096  208.229145  1090.000000
-193.176578  208.993289  1094.000000
-191.272787  208.993289  1094.000000
-189.368996  208.993289  1094.000000
-187.465205  208.993289  1094.000000
-185.561414  208.993289  1094.000000
-184.161255  209.566397  1097.000000
-182.252243  209.566397  1097.000000
-179.850041  208.993289  1094.000000
-177.946250  208.993289  1094.000000
-176.042459  208.993289  1094.000000
-174.138668  208.993289  1094.000000
-172.234877  208.993289  1094.000000
-169.708303  208.229145  1090.000000
-168.427295  208.993289  1094.000000
-166.523504  208.993289  1094.000000
-164.619712  208.993289  1094.000000
-162.715921  208.993289  1094.000000
-160.812130  208.993289  1094.000000
-158.908339  208.993289  1094.000000
-157.004548  208.993289  1094.000000
-155.100757  208.993289  1094.000000
-153.617067  209.566397  1097.000000
-151.708056  209.566397  1097.000000
-149.799044  209.566397  1097.000000
-147.890032  209.566397  1097.000000
-145.981021  209.566397  1097.000000
-144.072009  209.566397  1097.000000
-142.162997  209.566397  1097.000000
-140.765395  210.330540  1101.000000
-138.849422  210.330540  1101.000000
-136.933450  210.330540  1101.000000
-135.017477  210.330540  1101.000000
-133.101505  210.330540  1101.000000
-123.858213  210.903648  1104.000000
-121.605670  210.330540  1101.000000
-119.689697  210.330540  1101.000000
-115.857752  210.330540  1101.000000
-113.941779  210.330540  1101.000000
-112.025807  210.330540  1101.000000
-110.109834  210.330540  1101.000000
-108.193862  210.330540  1101.000000
-100.803895  210.903648  1104.000000
-98.882702  210.903648  1104.000000
-96.961509  210.903648  1104.000000
-95.040316  210.903648  1104.000000
-92.866082  210.330540  1101.000000
-86.564279  208.993289  1094.000000
-84.660488  208.993289  1094.000000
-82.756697  208.993289  1094.000000
-80.852906  208.993289  1094.000000
-78.660453  208.229145  1090.000000
-76.763623  208.229145  1090.000000
-69.430160  208.993289  1094.000000
-67.526369  208.993289  1094.000000
-65.622578  208.993289  1094.000000
-63.893518  209.566397  1097.000000
-61.984506  209.566397  1097.000000
-60.294549  210.330540  1101.000000
-58.378576  210.330540  1101.000000
-54.348460  209.566397  1097.000000
-52.296040  208.993289  1094.000000
-50.392249  208.993289  1094.000000
-48.488458  208.993289  1094.000000
-46.584667  208.993289  1094.000000
-35.033358  208.229145  1090.000000
-23.370284  205.745679  1077.000000
4.566678  198.104242  1037.000000
23.216418  188.361410  986.000000
24.932266  188.361410  986.000000
26.648115  188.361410  986.000000
28.306430  187.979339  984.000000
30.018797  187.979339  984.000000
31.634424  187.406231  981.000000
33.341571  187.406231  981.000000
35.048718  187.406231  981.000000
36.755865  187.406231  981.000000
38.463013  187.406231  981.000000
40.170160  187.406231  981.000000
41.877307  187.406231  981.000000
43.584454  187.406231  981.000000
45.291601  187.406231  981.000000
46.998749  187.406231  981.000000
48.705896  187.406231  981.000000
50.258875  186.833123  978.000000
51.960801  186.833123  978.000000
53.662728  186.833123  978.000000
55.364654  186.833123  978.000000
56.716479  185.686908  972.000000
58.287783  185.304836  970.000000
62.437442  182.630333  956.000000
64.101084  182.630333  956.000000
65.558351  182.057225  953.000000
67.216773  182.057225  953.000000
68.875194  182.057225  953.000000
70.533615  182.057225  953.000000
72.192036  182.057225  953.000000
73.850458  182.057225  953.000000
75.508879  182.057225  953.000000
77.167300  182.057225  953.000000
78.660295  181.675153  951.000000
80.315236  181.675153  951.000000
81.970177  181.675153  951.000000
83.625118  181.675153  951.000000
85.280058  181.675153  951.000000
86.934999  181.675153  951.000000
88.589940  181.675153  951.000000
89.960197  181.102046  948.000000
91.899822  181.675153  951.000000
93.554763  181.675153  951.000000
95.209704  181.675153  951.000000
96.864644  181.675153  951.000000
98.519585  181.675153  951.000000
100.174526  181.675153  951.000000
101.829467  181.675153  951.000000
103.484408  181.675153  951.000000
105.139349  181.675153  951.000000
106.794290  181.675153  951.000000
108.107119  181.102046  948.000000
110.104171  181.675153  951.000000
111.406560  181.102046  948.000000
113.056280  181.102046  948.000000
114.706000  181.102046  948.000000
116.355720  181.102046  948.000000
118.005441  181.102046  948.000000
119.655161  181.102046  948.000000
121.304881  181.102046  948.000000
122.954601  181.102046  948.000000
124.604321  181.102046  948.000000
126.254042  181.102046  948.000000
127.903762  181.102046  948.000000
129.553482  181.102046  948.000000
131.618402  181.675153  951.000000
133.273343  181.675153  951.000000
134.928284  181.675153  951.000000
136.583225  181.675153  951.000000
138.238166  181.675153  951.000000
139.893107  181.675153  951.000000
141.548047  181.675153  951.000000
143.202988  181.675153  951.000000
144.857929  181.675153  951.000000
146.512870  181.675153  951.000000
148.167811  181.675153  951.000000
149.350125  181.102046  948.000000
150.999845  181.102046  948.000000
152.649565  181.102046  948.000000
154.299285  181.102046  948.000000
155.949006  181.102046  948.000000
157.598726  181.102046  948.000000
159.248446  181.102046  948.000000
160.898166  181.102046  948.000000
162.547887  181.102046  948.000000
164.197607  181.102046  948.000000
165.847327  181.102046  948.000000
167.497047  181.102046  948.000000
169.146767  181.102046  948.000000
170.796488  181.102046  948.000000
172.446208  181.102046  948.000000
174.095928  181.102046  948.000000
175.745648  181.102046  948.000000
177.395368  181.102046  948.000000
179.045089  181.102046  948.000000
180.694809  181.102046  948.000000
182.344529  181.102046  948.000000
183.994249  181.102046  948.000000
185.643970  181.102046  948.000000
187.293690  181.102046  948.000000
188.943410  181.102046  948.000000
190.593130  181.102046  948.000000
192.242850  181.102046  948.000000
193.483515  180.719974  946.000000
195.129754  180.719974  946.000000
196.775994  180.719974  946.000000
198.422234  180.719974  946.000000
200.068474  180.719974  946.000000
201.714714  180.719974  946.000000
203.360953  180.719974  946.000000
205.007193  180.719974  946.000000
206.653433  180.719974  946.000000
208.299673  180.719974  946.000000
209.945913  180.719974  946.000000
211.592152  180.719974  946.000000
213.238392  180.719974  946.000000
214.884632  180.719974  946.000000
216.530872  180.719974  946.000000
218.177112  180.719974  946.000000
219.823351  180.719974  946.000000
221.469591  180.719974  946.000000
223.115831  180.719974  946.000000
224.762071  180.719974  946.000000
226.408311  180.719974  946.000000
228.054550  180.719974  946.000000
229.700790  180.719974  946.000000
231.347030  180.719974  946.000000
232.993270  180.719974  946.000000
234.639510  180.719974  946.000000
236.285749  180.719974  946.000000
237.931989  180.719974  946.000000
239.578229  180.719974  946.000000
241.224469  180.719974  946.000000
242.870709  180.719974  946.000000
244.516948  180.719974  946.000000
246.163188  180.719974  946.000000
248.333338  181.102046  948.000000
249.983058  181.102046  948.000000
251.632778  181.102046  948.000000
253.282499  181.102046  948.000000
254.394387  180.719974  946.000000
256.581939  181.102046  948.000000
258.231659  181.102046  948.000000
259.881379  181.102046  948.000000
261.531100  181.102046  948.000000
262.625586  180.719974  946.000000
264.271826  180.719974  946.000000
265.918066  180.719974  946.000000
267.564306  180.719974  946.000000
269.210545  180.719974  946.000000
270.856785  180.719974  946.000000
272.503025  180.719974  946.000000
274.149265  180.719974  946.000000
275.795504  180.719974  946.000000
277.441744  180.719974  946.000000
279.087984  180.719974  946.000000
280.734224  180.719974  946.000000
282.380464  180.719974  946.000000
284.026703  180.719974  946.000000
285.672943  180.719974  946.000000
287.319183  180.719974  946.000000
288.049042  180.146866  943.000000
289.690061  180.146866  943.000000
291.331080  180.146866  943.000000
292.972100  180.146866  943.000000
294.613119  180.146866  943.000000
297.196622  180.719974  946.000000
297.895157  180.146866  943.000000
299.536176  180.146866  943.000000
302.135341  180.719974  946.000000
303.781581  180.719974  946.000000
305.427821  180.719974  946.000000
307.074061  180.719974  946.000000
308.720300  180.719974  946.000000
310.366540  180.719974  946.000000
312.012780  180.719974  946.000000
313.659020  180.719974  946.000000
315.305260  180.719974  946.000000
316.951499  180.719974  946.000000
318.597739  180.719974  946.000000
320.243979  180.719974  946.000000
321.890219  180.719974  946.000000
323.536459  180.719974  946.000000
325.182698  180.719974  946.000000
326.828938  180.719974  946.000000
328.475178  180.719974  946.000000
330.121418  180.719974  946.000000
331.767658  180.719974  946.000000
333.413897  180.719974  946.000000
335.060137  180.719974  946.000000
336.706377  180.719974  946.000000
338.352617  180.719974  946.000000
339.998857  180.719974  946.000000
340.561655  180.146866  943.000000
342.202674  180.146866  943.000000
343.843694  180.146866  943.000000
345.484713  180.146866  943.000000
347.125732  180.146866  943.000000
348.766751  180.146866  943.000000
350.407770  180.146866  943.000000
353.168775  180.719974  946.000000
353.689809  180.146866  943.000000
355.330828  180.146866  943.000000
356.971847  180.146866  943.000000
358.612866  180.146866  943.000000
360.253885  180.146866  943.000000
361.894904  180.146866  943.000000
363.535924  180.146866  943.000000
365.176943  180.146866  943.000000
366.817962  180.146866  943.000000
368.458981  180.146866  943.000000
371.277413  180.719974  946.000000
372.923653  180.719974  946.000000
374.569892  180.719974  946.000000
375.023058  180.146866  943.000000
376.664077  180.146866  943.000000
378.305096  180.146866  943.000000
379.946115  180.146866  943.000000
381.587134  180.146866  943.000000
383.228154  180.146866  943.000000
384.869173  180.146866  943.000000
386.510192  180.146866  943.000000
388.151211  180.146866  943.000000
389.792230  180.146866  943.000000
391.433249  180.146866  943.000000
393.074269  180.146866  943.000000
393.459566  179.573758  940.000000
396.356307  180.146866  943.000000
397.997326  180.146866  943.000000
398.366961  179.573758  940.000000
400.002760  179.573758  940.000000
401.638558  179.573758  940.000000
403.274357  179.573758  940.000000
404.910155  179.573758  940.000000
406.545954  179.573758  940.000000
408.181752  179.573758  940.000000
409.817551  179.573758  940.000000
411.453349  179.573758  940.000000
413.089148  179.573758  940.000000
414.724947  179.573758  940.000000
416.360745  179.573758  940.000000
417.996544  179.573758  940.000000
419.632342  179.573758  940.000000
421.268141  179.573758  940.000000
422.903939  179.573758  940.000000
424.539738  179.573758  940.000000
426.175536  179.573758  940.000000
426.901098  179.191687  938.000000
428.533416  179.191687  938.000000
430.165734  179.191687  938.000000
431.798052  179.191687  938.000000
433.430370  179.191687  938.000000
435.062688  179.191687  938.000000
436.695007  179.191687  938.000000
438.327325  179.191687  938.000000
439.959643  179.191687  938.000000
441.591961  179.191687  938.000000
443.224279  179.191687  938.000000
444.856597  179.191687  938.000000
446.488915  179.191687  938.000000
448.121233  179.191687  938.000000
449.753551  179.191687  938.000000
451.385870  179.191687  938.000000
453.018188  179.191687  938.000000
454.650506  179.191687  938.000000
456.282824  179.191687  938.000000
457.915142  179.191687  938.000000
459.547460  179.191687  938.000000
461.179778  179.191687  938.000000
462.812096  179.191687  938.000000
462.958984  178.618579  935.000000
464.586082  178.618579  935.000000
466.213179  178.618579  935.000000
467.840277  178.618579  935.000000
469.467374  178.618579  935.000000
471.094472  178.618579  935.000000
472.721569  178.618579  935.000000
474.348667  178.618579  935.000000
475.975764  178.618579  935.000000
477.602862  178.618579  935.000000
479.229959  178.618579  935.000000
480.857057  178.618579  935.000000
482.484154  178.618579  935.000000
484.111252  178.618579  935.000000
-566.929976  206.270453  1070.000000
-565.067950  206.270453  1070.000000
-563.205924  206.270453  1070.000000
-561.343898  206.270453  1070.000000
-559.481872  206.270453  1070.000000
-559.183266  206.848781  1073.000000
-557.316020  206.848781  1073.000000
-555.448773  206.848781  1073.000000
-553.581526  206.848781  1073.000000
-551.714280  206.848781  1073.000000
-548.309716  206.270453  1070.000000
-544.404895  205.499349  1066.000000
-542.549830  205.499349  1066.000000
-539.173110  204.921020  1063.000000
-537.323265  204.921020  1063.000000
-533.962207  204.342692  1060.000000
-532.117583  204.342692  1060.000000
-528.772187  203.764363  1057.000000
-524.938714  202.993259  1053.000000
-523.106272  202.993259  1053.000000
-521.273830  202.993259  1053.000000
-519.441387  202.993259  1053.000000
-517.608945  202.993259  1053.000000
-514.307054  202.414931  1050.000000
-512.479832  202.414931  1050.000000
-510.652610  202.414931  1050.000000
-508.825388  202.414931  1050.000000
-506.998167  202.414931  1050.000000
-505.170945  202.414931  1050.000000
-503.343723  202.414931  1050.000000
-501.516501  202.414931  1050.000000
-498.261596  201.836602  1047.000000
-496.439595  201.836602  1047.000000
-494.617594  201.836602  1047.000000
-492.795592  201.836602  1047.000000
-490.973591  201.836602  1047.000000
-489.151590  201.836602  1047.000000
-487.329589  201.836602  1047.000000
-484.116449  201.258274  1044.000000
-482.299668  201.258274  1044.000000
-480.482888  201.258274  1044.000000
-478.666107  201.258274  1044.000000
-476.849327  201.258274  1044.000000
-473.212498  200.487169  1040.000000
-471.402679  200.487169  1040.000000
-469.592859  200.487169  1040.000000
-467.783039  200.487169  1040.000000
-464.629066  199.908841  1037.000000
-462.824467  199.908841  1037.000000
-462.353580  200.487169  1040.000000
-459.215269  199.908841  1037.000000
-458.733941  200.487169  1040.000000
-456.924121  200.487169  1040.000000
-453.801472  199.908841  1037.000000
-453.304482  200.487169  1040.000000
-451.494662  200.487169  1040.000000
-449.684843  200.487169  1040.000000
-447.875023  200.487169  1040.000000
-447.780839  201.258274  1044.000000
-445.964058  201.258274  1044.000000
-442.445564  200.487169  1040.000000
-440.635744  200.487169  1040.000000
-438.825925  200.487169  1040.000000
-437.016105  200.487169  1040.000000
-435.206286  200.487169  1040.000000
-433.396466  200.487169  1040.000000
-431.586646  200.487169  1040.000000
-429.776827  200.487169  1040.000000
-427.967007  200.487169  1040.000000
-426.157187  200.487169  1040.000000
-424.347368  200.487169  1040.000000
-422.537548  200.487169  1040.000000
-420.727728  200.487169  1040.000000
-418.917909  200.487169  1040.000000
-417.108089  200.487169  1040.000000
-415.298269  200.487169  1040.000000
-413.488450  200.487169  1040.000000
-411.678630  200.487169  1040.000000
-409.868810  200.487169  1040.000000
-409.628448  201.258274  1044.000000
-407.811668  201.258274  1044.000000
-405.994887  201.258274  1044.000000
-405.339538  201.836602  1047.000000
-403.517537  201.836602  1047.000000
-401.695536  201.836602  1047.000000
-399.873535  201.836602  1047.000000
-398.051534  201.836602  1047.000000
-396.229533  201.836602  1047.000000
-394.407532  201.836602  1047.000000
-393.710417  202.414931  1050.000000
-391.883196  202.414931  1050.000000
-390.055974  202.414931  1050.000000
-388.228752  202.414931  1050.000000
-386.401530  202.414931  1050.000000
-384.574308  202.414931  1050.000000
-382.747087  202.414931  1050.000000
-382.008207  202.993259  1053.000000
-380.175765  202.993259  1053.000000
-378.343323  202.993259  1053.000000
-375.438200  202.414931  1050.000000
-373.610978  202.414931  1050.000000
-371.783756  202.414931  1050.000000
-369.956534  202.414931  1050.000000
-368.129313  202.414931  1050.000000
-366.302091  202.414931  1050.000000
-364.474869  202.414931  1050.000000
-362.647647  202.414931  1050.000000
-360.820426  202.414931  1050.000000
-358.993204  202.414931  1050.000000
-357.165982  202.414931  1050.000000
-355.338760  202.414931  1050.000000
-353.511539  202.414931  1050.000000
-351.684317  202.414931  1050.000000
-349.857095  202.414931  1050.000000
-348.029873  202.414931  1050.000000
-346.202651  202.414931  1050.000000
-344.375430  202.414931  1050.000000
-342.548208  202.414931  1050.000000
-340.720986  202.414931  1050.000000
-338.893764  202.414931  1050.000000
-337.066543  202.414931  1050.000000
-334.281494  201.836602  1047.000000
-332.459493  201.836602  1047.000000
-330.637492  201.836602  1047.000000
-328.815491  201.836602  1047.000000
-326.993490  201.836602  1047.000000
-324.239765  201.258274  1044.000000
-323.349487  201.836602  1047.000000
-321.527486  201.836602  1047.000000
-320.621547  202.414931  1050.000000
-318.794325  202.414931  1050.000000
-316.967103  202.414931  1050.000000
-316.040281  202.993259  1053.000000
-314.207839  202.993259  1053.000000
-313.562008  203.764363  1057.000000
-312.607342  204.342692  1060.000000
-310.762718  204.342692  1060.000000
-308.918094  204.342692  1060.000000
-307.942546  204.921020  1063.000000
-306.092702  204.921020  1063.000000
-304.242857  204.921020  1063.000000
-302.393013  204.921020  1063.000000
-301.391362  205.499349  1066.000000
-299.536296  205.499349  1066.000000
-298.798234  206.270453  1070.000000
-296.936208  206.270453  1070.000000
-295.074182  206.270453  1070.000000
-293.212156  206.270453  1070.000000
-292.167000  206.848781  1073.000000
-290.299753  206.848781  1073.000000
-288.432506  206.848781  1073.000000
-286.565260  206.848781  1073.000000
-284.698013  206.848781  1073.000000
-282.830767  206.848781  1073.000000
-280.963520  206.848781  1073.000000
-280.136707  207.619886  1077.000000
-278.262499  207.619886  1077.000000
-276.388292  207.619886  1077.000000
-274.514084  207.619886  1077.000000
-272.639877  207.619886  1077.000000
-270.765669  207.619886  1077.000000
-268.891462  207.619886  1077.000000
-267.017255  207.619886  1077.000000
-265.143047  207.619886  1077.000000
-263.268840  207.619886  1077.000000
-261.394632  207.619886  1077.000000
-259.520425  207.619886  1077.000000
-257.646217  207.619886  1077.000000
-255.772010  207.619886  1077.000000
-253.897802  207.619886  1077.000000
-252.725610  208.198214  1080.000000
-250.846182  208.198214  1080.000000
-248.966754  208.198214  1080.000000
-247.087326  208.198214  1080.000000
-245.207898  208.198214  1080.000000
-244.004382  208.776543  1083.000000
-242.119734  208.776543  1083.000000
-240.235085  208.776543  1083.000000
-239.230770  209.547647  1087.000000
-237.339161  209.547647  1087.000000
-236.097360  210.125976  1090.000000
-234.200530  210.125976  1090.000000
-232.303700  210.125976  1090.000000
-230.406870  210.125976  1090.000000
-228.510039  210.125976  1090.000000
-226.613209  210.125976  1090.000000
-224.716379  210.125976  1090.000000
-222.819549  210.125976  1090.000000
-220.922719  210.125976  1090.000000
-219.025888  210.125976  1090.000000
-217.129058  210.125976  1090.000000
-215.232228  210.125976  1090.000000
-213.335398  210.125976  1090.000000
-211.438567  210.125976  1090.000000
-209.541737  210.125976  1090.000000
-207.644907  210.125976  1090.000000
-205.748077  210.125976  1090.000000
-203.851247  210.125976  1090.000000
-201.954416  210.125976  1090.000000
-200.057586  210.125976  1090.000000
-198.160756  210.125976  1090.000000
-196.263926  210.125976  1090.000000
-194.367096  210.125976  1090.000000
-192.470265  210.125976  1090.000000
-190.573435  210.125976  1090.000000
-188.676605  210.125976  1090.000000
-187.465205  210.897080  1094.000000
-185.561414  210.897080  1094.000000
-183.657623  210.897080  1094.000000
-181.753832  210.897080  1094.000000
-179.850041  210.897080  1094.000000
-177.946250  210.897080  1094.000000
-176.042459  210.897080  1094.000000
-174.138668  210.897080  1094.000000
-171.605133  210.125976  1090.000000
-169.708303  210.125976  1090.000000
-167.811473  210.125976  1090.000000
-166.523504  210.897080  1094.000000
-164.017812  210.125976  1090.000000
-162.715921  210.897080  1094.000000
-160.812130  210.897080  1094.000000
-158.908339  210.897080  1094.000000
-157.004548  210.897080  1094.000000
-155.100757  210.897080  1094.000000
-153.196966  210.897080  1094.000000
-151.708056  211.475408  1097.000000
-149.799044  211.475408  1097.000000
-147.890032  211.475408  1097.000000
-145.581802  210.897080  1094.000000
-143.678011  210.897080  1094.000000
-142.162997  211.475408  1097.000000
-140.253986  211.475408  1097.000000
-138.344974  211.475408  1097.000000
-136.435962  211.475408  1097.000000
-134.526951  211.475408  1097.000000
-132.617939  211.475408  1097.000000
-131.185532  212.246513  1101.000000
-129.269560  212.246513  1101.000000
-127.353587  212.246513  1101.000000
-122.287548  210.125976  1090.000000
-120.390717  210.125976  1090.000000
-117.080657  207.619886  1077.000000
-115.857752  212.246513  1101.000000
-113.941779  212.246513  1101.000000
-112.025807  212.246513  1101.000000
-110.109834  212.246513  1101.000000
-108.193862  212.246513  1101.000000
-106.277889  212.246513  1101.000000
-100.803895  212.824841  1104.000000
-98.882702  212.824841  1104.000000
-96.698027  212.246513  1101.000000
-94.782054  212.246513  1101.000000
-92.866082  212.246513  1101.000000
-90.950109  212.246513  1101.000000
-88.468070  210.897080  1094.000000
-86.564279  210.897080  1094.000000
-84.660488  210.897080  1094.000000
-82.756697  210.897080  1094.000000
-80.557283  210.125976  1090.000000
-78.660453  210.125976  1090.000000
-76.763623  210.125976  1090.000000
-74.866792  210.125976  1090.000000
-72.969962  210.125976  1090.000000
-71.333951  210.897080  1094.000000
-69.430160  210.897080  1094.000000
-67.526369  210.897080  1094.000000
-65.622578  210.897080  1094.000000
-63.718787  210.897080  1094.000000
-61.814995  210.897080  1094.000000
-60.075495  211.475408  1097.000000
-58.166483  211.475408  1097.000000
-56.257471  211.475408  1097.000000
-54.199831  210.897080  1094.000000
-52.296040  210.897080  1094.000000
-50.392249  210.897080  1094.000000
-48.488458  210.897080  1094.000000
-46.584667  210.897080  1094.000000
-44.680876  210.897080  1094.000000
-40.723849  210.125976  1090.000000
-35.033358  210.125976  1090.000000
-33.045326  209.547647  1087.000000
-31.153717  209.547647  1087.000000
-25.314810  208.198214  1080.000000
-23.370284  207.619886  1077.000000
2.762079  199.908841  1037.000000
4.566678  199.908841  1037.000000
6.352845  199.330513  1034.000000
8.152224  199.330513  1034.000000
24.881694  189.691706  984.000000
26.594062  189.691706  984.000000
28.306430  189.691706  984.000000
29.927277  189.113378  981.000000
31.634424  189.113378  981.000000
33.341571  189.113378  981.000000
35.048718  189.113378  981.000000
36.755865  189.113378  981.000000
38.463013  189.113378  981.000000
40.170160  189.113378  981.000000
41.877307  189.113378  981.000000
43.451168  188.535050  978.000000
45.291601  189.113378  981.000000
46.855022  188.535050  978.000000
48.556948  188.535050  978.000000
50.258875  188.535050  978.000000
51.960801  188.535050  978.000000
53.662728  188.535050  978.000000
55.194824  187.956721  975.000000
56.716479  187.378393  972.000000
58.287783  186.992841  970.000000
59.790296  186.414512  967.000000
60.964513  184.872303  959.000000
62.437442  184.293975  956.000000
64.101084  184.293975  956.000000
65.558351  183.715647  953.000000
67.216773  183.715647  953.000000
68.730650  183.330094  951.000000
70.385591  183.330094  951.000000
72.040532  183.330094  951.000000
73.695472  183.330094  951.000000
75.350413  183.330094  951.000000
77.005354  183.330094  951.000000
78.660295  183.330094  951.000000
80.315236  183.330094  951.000000
81.970177  183.330094  951.000000
83.361316  182.751766  948.000000
85.011036  182.751766  948.000000
86.660756  182.751766  948.000000
88.310477  182.751766  948.000000
89.960197  182.751766  948.000000
91.609917  182.751766  948.000000
93.259637  182.751766  948.000000
94.909358  182.751766  948.000000
96.559078  182.751766  948.000000
98.208798  182.751766  948.000000
99.858518  182.751766  948.000000
101.508238  182.751766  948.000000
103.157959  182.751766  948.000000
104.807679  182.751766  948.000000
106.457399  182.751766  948.000000
108.107119  182.751766  948.000000
109.756839  182.751766  948.000000
111.406560  182.751766  948.000000
113.056280  182.751766  948.000000
114.706000  182.751766  948.000000
116.355720  182.751766  948.000000
118.005441  182.751766  948.000000
119.655161  182.751766  948.000000
121.304881  182.751766  948.000000
122.954601  182.751766  948.000000
124.604321  182.751766  948.000000
126.254042  182.751766  948.000000
127.903762  182.751766  948.000000
129.553482  182.751766  948.000000
131.203202  182.751766  948.000000
132.852923  182.751766  948.000000
134.502643  182.751766  948.000000
136.583225  183.330094  951.000000
137.802083  182.751766  948.000000
139.451803  182.751766  948.000000
141.101524  182.751766  948.000000
142.751244  182.751766  948.000000
144.400964  182.751766  948.000000
146.050684  182.751766  948.000000
147.700405  182.751766  948.000000
149.350125  182.751766  948.000000
150.999845  182.751766  948.000000
152.649565  182.751766  948.000000
154.299285  182.751766  948.000000
155.949006  182.751766  948.000000
157.598726  182.751766  948.000000
159.248446  182.751766  948.000000
160.898166  182.751766  948.000000
162.204958  182.366214  946.000000
164.197607  182.751766  948.000000
165.497438  182.366214  946.000000
167.143678  182.366214  946.000000
168.789918  182.366214  946.000000
170.796488  182.751766  948.000000
172.446208  182.751766  948.000000
