2.712514  168.041902  1275.876375
2.816198  167.977337  1274.053240
2.919882  167.912772  1272.230105
3.023566  167.848206  1270.406970
3.127250  167.783641  1268.583836
3.230934  167.719076  1266.760701
3.334618  167.654511  1264.937566
3.438303  167.589946  1263.114431
2.804956  170.402310  1259.805562
2.908344  170.337929  1257.987636
3.749355  167.396251  1257.645027
3.115120  170.209168  1254.351784
3.956723  167.267120  1253.998757
4.060407  167.202555  1252.175623
3.425283  170.016026  1248.898007
4.267776  167.073425  1248.529353
3.632059  169.887265  1245.262156
3.735447  169.822884  1243.444230
3.838835  169.758503  1241.626303
3.942223  169.694123  1239.808378
4.045611  169.629742  1237.990452
4.148999  169.565362  1236.172526
4.993565  166.621469  1235.767410
5.097249  166.556904  1233.944275
4.459162  169.372220  1230.718749
5.304617  166.427774  1230.298006
4.665938  169.243458  1227.082897
5.511985  166.298644  1226.651736
5.615670  166.234079  1224.828601
5.719354  166.169514  1223.005467
5.823038  166.104948  1221.182332
5.926722  166.040383  1219.359197
6.030406  165.975818  1217.536062
6.134090  165.911253  1215.712927
6.237774  165.846688  1213.889793
6.341458  165.782123  1212.066658
6.445143  165.717558  1210.243523
6.548827  165.652993  1208.420388
6.652511  165.588427  1206.597254
6.756195  165.523862  1204.774119
6.859879  165.459297  1202.950984
6.963563  165.394732  1201.127850
7.067247  165.330167  1199.304716
7.170932  165.265602  1197.481581
7.274616  165.201037  1195.658446
7.378300  165.136472  1193.835311
7.481984  165.071907  1192.012177
7.585668  165.007341  1190.189042
7.689352  164.942776  1188.365907
8.542213  161.993719  1187.814939
8.646193  161.928969  1185.986596
8.750174  161.864220  1184.158252
8.854154  161.799470  1182.329908
9.958616  157.887747  1182.170007
10.062992  157.822751  1180.334718
10.918321  154.872157  1179.740343
11.022993  154.806977  1177.899845
11.127664  154.741797  1176.059347
11.232336  154.676617  1174.218849
11.337007  154.611437  1172.378352
11.441679  154.546257  1170.537854
11.546351  154.481077  1168.697356
11.651022  154.415897  1166.856858
11.755694  154.350716  1165.016360
11.860365  154.285536  1163.175862
11.211121  157.107800  1160.146540
11.315496  157.042805  1158.311250
11.419871  156.977809  1156.475961
10.517840  160.763477  1153.076410
10.621821  160.698727  1151.248065
11.732997  156.782823  1150.970094
11.837373  156.717827  1149.134805
11.941748  156.652832  1147.299517
12.046124  156.587836  1145.464228
11.141722  160.374979  1142.106347
11.245703  160.310230  1140.278003
11.349683  160.245480  1138.449660
12.463625  156.327854  1138.123072
12.568000  156.262858  1136.287782
12.672376  156.197863  1134.452494
12.776751  156.132867  1132.617205
12.881126  156.067872  1130.781916
13.744454  153.112296  1130.046898
13.849126  153.047116  1128.206401
13.953798  152.981936  1126.365903
14.058469  152.916756  1124.525405
14.923278  149.960258  1123.764343
15.028246  149.894894  1121.918637
15.133214  149.829529  1120.072929
15.238182  149.764165  1118.227223
15.343150  149.698800  1116.381516
15.448117  149.633436  1114.535809
15.553085  149.568071  1112.690102
15.658053  149.502707  1110.844395
16.525528  146.544549  1110.036453
16.630793  146.479000  1108.185538
16.736057  146.413451  1106.334621
16.841321  146.347902  1104.483705
17.964841  142.424311  1103.988695
18.834489  139.464800  1103.142553
19.959491  135.540287  1102.621498
20.065841  135.474062  1100.751482
20.937069  132.513567  1099.877560
21.043716  132.447157  1098.002336
21.915832  129.486109  1097.112787
23.043796  125.559751  1096.539641
23.151133  125.492911  1094.652263
23.258471  125.426070  1092.764885
23.365809  125.359230  1090.877506
24.240098  122.396829  1089.949758
24.347732  122.329804  1088.057171
24.455366  122.262780  1086.164582
24.563000  122.195755  1084.271995
24.670634  122.128730  1082.379408
25.802844  118.199728  1081.731601
25.910873  118.132457  1079.832068
26.018902  118.065187  1077.932535
26.126931  117.997916  1076.033003
27.004577  115.033424  1075.046220
27.112902  114.965969  1073.141478
27.221227  114.898514  1071.236736
28.356894  110.967360  1070.528158
28.465614  110.899659  1068.616471
29.345432  107.933814  1067.591489
29.454449  107.865929  1065.674593
29.563465  107.798043  1063.757697
29.672482  107.730158  1061.840801
29.781498  107.662272  1059.923906
29.890515  107.594386  1058.007009
29.999531  107.526501  1056.090113
30.108548  107.458615  1054.173217
30.217564  107.390730  1052.256321
30.326581  107.322844  1050.339426
31.467679  103.388308  1049.535350
31.577090  103.320176  1047.611509
31.686502  103.252045  1045.687668
31.795913  103.183913  1043.763826
31.905325  103.115781  1041.839985
32.014736  103.047650  1039.916144
33.158598  99.111392  1039.063451
33.268405  99.043014  1037.132665
33.378211  98.974637  1035.201878
33.488017  98.906259  1033.271091
33.597824  98.837882  1031.340305
33.707630  98.769504  1029.409519
33.817437  98.701127  1027.478732
33.927243  98.632749  1025.547946
34.815258  95.661801  1024.378849
34.925360  95.593239  1022.442853
35.035463  95.524677  1020.506858
35.145566  95.456115  1018.570862
35.255668  95.387553  1016.634867
35.365771  95.318991  1014.698871
36.515854  91.378859  1013.736791
36.626352  91.310051  1011.793851
36.736850  91.241243  1009.850910
36.847347  91.172435  1007.907969
37.739015  88.199212  1006.674628
37.849809  88.130220  1004.726478
37.960603  88.061227  1002.778329
38.071397  87.992235  1000.830179
38.182191  87.923242  998.882030
38.292985  87.854250  996.933881
38.403779  87.785257  994.985731
38.514573  87.716265  993.037581
37.841826  90.553164  990.421502
37.952324  90.484356  988.478562
38.062822  90.415548  986.535621
38.173319  90.346740  984.592680
38.283817  90.277932  982.649739
38.394315  90.209124  980.706799
38.504812  90.140316  978.763858
38.615310  90.071508  976.820917
38.725808  90.002700  974.877977
38.836305  89.933892  972.935035
38.946803  89.865084  970.992095
39.057301  89.796276  969.049154
39.167798  89.727468  967.106213
39.278296  89.658660  965.163273
39.388794  89.589852  963.220332
39.499291  89.521044  961.277391
39.609789  89.452236  959.334450
39.720287  89.383428  957.391510
39.830784  89.314620  955.448569
39.941282  89.245812  953.505628
40.051780  89.177004  951.562688
40.162277  89.108196  949.619746
40.272775  89.039388  947.676806
40.383273  88.970581  945.733865
40.493770  88.901773  943.790924
40.604268  88.832965  941.847984
40.714766  88.764157  939.905043
41.616802  85.784477  938.489388
41.727596  85.715484  936.541240
41.838390  85.646492  934.593090
41.156756  88.488925  932.133280
41.267254  88.420117  930.190339
41.377752  88.351309  928.247399
42.281566  85.370522  926.800491
41.598747  88.213693  924.361517
42.503153  85.232537  922.904192
42.613947  85.163545  920.956042
42.724741  85.094553  919.007892
42.835535  85.025560  917.059742
42.946329  84.956568  915.111593
43.057123  84.887575  913.163443
43.167917  84.818583  911.215293
43.278711  84.749590  909.267143
43.389505  84.680598  907.318994
43.500299  84.611605  905.370844
43.611093  84.542613  903.422694
43.721887  84.473621  901.474545
43.832680  84.404628  899.526395
43.943474  84.335636  897.578245
44.054268  84.266643  895.630095
44.165062  84.197651  893.681946
44.275856  84.128658  891.733796
44.386650  84.059666  889.785646
44.497444  83.990674  887.837496
44.608238  83.921681  885.889347
44.719032  83.852689  883.941197
44.029696  86.699918  881.616820
44.140193  86.631110  879.673879
44.250691  86.562302  877.730939
44.361189  86.493494  875.787998
44.471686  86.424686  873.845057
44.582184  86.355878  871.902117
44.692682  86.287070  869.959175
44.803179  86.218262  868.016235
44.913677  86.149454  866.073295
45.024175  86.080646  864.130353
45.134672  86.011838  862.187413
45.245170  85.943030  860.244472
44.284088  89.765469  857.883239
45.466165  85.805414  856.358591
45.576663  85.736606  854.415650
45.687161  85.667798  852.472709
44.724499  89.491221  850.139257
44.834602  89.422659  848.203261
44.944704  89.354097  846.267266
45.054807  89.285535  844.331270
45.164910  89.216973  842.395275
45.275012  89.148411  840.459279
44.578468  92.000129  838.261654
44.688274  91.931751  836.330867
44.798081  91.863374  834.400080
43.831173  95.689441  832.141289
43.940584  95.621309  830.217448
44.049996  95.553178  828.293607
44.159407  95.485046  826.369766
44.268819  95.416914  824.445924
44.378230  95.348783  822.522083
44.487642  95.280651  820.598242
44.597053  95.212520  818.674401
44.706465  95.144388  816.750559
44.815876  95.076257  814.826718
44.925287  95.008125  812.902877
45.034699  94.939993  810.979036
45.144110  94.871862  809.055195
45.253522  94.803730  807.131353
45.362933  94.735599  805.207512
45.472345  94.667467  803.283671
45.581756  94.599336  801.359830
44.607738  98.429830  799.226054
44.716754  98.361944  797.309158
44.825770  98.294059  795.392261
44.934787  98.226173  793.475366
44.230046  101.082995  791.421854
44.338767  101.015293  789.510168
43.361688  104.847694  787.430218
42.655367  107.705499  785.404487
42.763396  107.638229  783.504955
42.871425  107.570958  781.605422
42.979454  107.503687  779.705889
17.895579  198.080817  772.963574
17.994425  198.019265  771.225519
18.093270  197.957713  769.487464
17.375100  200.822898  767.670092
17.473649  200.761530  765.937246
17.572199  200.700162  764.204399
18.488652  197.711505  762.535244
18.587498  197.649953  760.797188
17.867847  200.516060  759.005861
17.966396  200.454692  757.273015
18.064945  200.393324  755.540169
18.163494  200.331957  753.807323
18.262044  200.270589  752.074476
18.360593  200.209222  750.341630
18.459142  200.147854  748.608784
18.557692  200.086486  746.875938
18.656241  200.025119  745.143092
18.754790  199.963751  743.410245
18.853340  199.902384  741.677399
18.130133  202.770704  739.948580
18.228386  202.709521  738.220943
18.326640  202.648338  736.493306
17.602248  205.517396  734.785322
16.877265  208.386823  733.087756
16.974925  208.326009  731.370536
14.876499  216.080647  729.747398
14.149540  218.951304  728.084558
13.421989  221.822330  726.432137
12.693846  224.693725  724.790133
12.240015  226.588311  723.139842
12.335800  226.528665  721.455613
12.431584  226.469019  719.771385
12.527369  226.409374  718.087155
12.623153  226.349728  716.402926
12.718937  226.290082  714.718696
12.814722  226.230436  713.034467
12.910506  226.170790  711.350238
13.006291  226.111144  709.666008
13.102075  226.051498  707.981779
13.197859  225.991853  706.297551
12.465667  228.865768  704.726735
12.561155  228.806307  703.047715
12.656643  228.746846  701.368695
12.752132  228.687384  699.689675
12.847620  228.627923  698.010654
12.943108  228.568462  696.331634
13.038596  228.509000  694.652614
13.134084  228.449539  692.973594
13.229572  228.390077  691.294573
13.325061  228.330616  689.615553
13.420549  228.271155  687.936533
13.516037  228.211693  686.257513
13.611525  228.152232  684.578493
13.707013  228.092770  682.899472
13.802501  228.033309  681.220451
13.897989  227.973848  679.541431
13.993478  227.914386  677.862411
14.088966  227.854925  676.183390
14.184454  227.795463  674.504370
14.279942  227.736002  672.825350
14.375430  227.676541  671.146330
14.470918  227.617079  669.467309
14.566407  227.557618  667.788289
14.661895  227.498156  666.109269
14.757383  227.438695  664.430249
14.852871  227.379234  662.751229
14.948359  227.319772  661.072208
15.043847  227.260311  659.393188
15.139335  227.200849  657.714168
15.234824  227.141388  656.035148
15.330312  227.081927  654.356127
15.425800  227.022465  652.677107
15.521288  226.963004  650.998086
15.616776  226.903542  649.319066
15.712264  226.844081  647.640045
15.807753  226.784620  645.961025
15.903241  226.725158  644.282005
15.998729  226.665697  642.602985
16.094217  226.606236  640.923965
16.189705  226.546774  639.244944
16.285193  226.487313  637.565924
15.540559  229.368976  636.213885
15.635751  229.309700  634.540075
15.730943  229.250423  632.866263
15.826135  229.191146  631.192452
15.921327  229.131869  629.518640
16.016519  229.072592  627.844829
16.111711  229.013315  626.171018
16.206903  228.954038  624.497206
15.459602  231.837362  623.192048
15.554498  231.778270  621.523446
16.492478  228.776207  619.475772
15.744289  231.660085  618.186241
15.839185  231.600992  616.517639
16.778054  228.598377  614.454339
16.873246  228.539100  612.780527
16.123872  231.423715  611.511832
17.063630  228.420546  609.432905
17.158822  228.361269  607.759093
17.254014  228.301992  606.085282
17.349205  228.242715  604.411470
17.444397  228.183438  602.737659
17.539589  228.124161  601.063848
17.634781  228.064884  599.390036
17.729973  228.005607  597.716225
17.825165  227.946330  596.042414
17.920357  227.887053  594.368602
18.015549  227.827777  592.694791
18.110741  227.768500  591.020980
18.205933  227.709223  589.347169
18.301125  227.649946  587.673357
18.396317  227.590669  585.999545
18.491508  227.531392  584.325735
18.586700  227.472115  582.651923
18.681892  227.412838  580.978112
18.777084  227.353561  579.304300
18.872276  227.294284  577.630489
18.967468  227.235007  575.956678
19.062660  227.175730  574.282866
19.157852  227.116453  572.609055
19.253044  227.057177  570.935244
19.348236  226.997900  569.261432
18.591159  229.887311  568.128170
18.686055  229.828219  566.459568
18.780951  229.769126  564.790966
18.875846  229.710034  563.122364
18.970742  229.650941  561.453761
19.065638  229.591849  559.785159
19.160533  229.532756  558.116556
19.255429  229.473664  556.447954
19.350325  229.414572  554.779352
19.445220  229.355479  553.110749
19.540116  229.296387  551.442147
19.635012  229.237294  549.773544
19.729907  229.178202  548.104942
19.824803  229.119109  546.436339
19.919699  229.060017  544.767737
20.014594  229.000924  543.099135
20.109490  228.941832  541.430532
20.204386  228.882740  539.761930
20.299281  228.823647  538.093327
20.394177  228.764555  536.424725
20.489073  228.705462  534.756123
20.583968  228.646370  533.087520
20.678864  228.587277  531.418918
20.773760  228.528185  529.750315
20.868656  228.469092  528.081713
20.390436  230.378867  526.860293
20.485134  230.319897  525.195163
20.579832  230.260928  523.530033
20.674530  230.201958  521.864904
20.769228  230.142989  520.199774
20.863927  230.084020  518.534645
20.958625  230.025050  516.869514
21.053323  229.966081  515.204384
21.148021  229.907111  513.539255
21.242719  229.848142  511.874125
21.912508  227.819075  509.727087
21.432116  229.730203  508.543866
21.526814  229.671233  506.878736
21.621512  229.612264  505.213606
22.292091  227.582706  503.052678
22.386986  227.523613  501.384075
21.905607  229.435355  500.218218
22.000305  229.376386  498.553087
22.095003  229.317416  496.887958
22.189701  229.258447  495.222828
22.284399  229.199477  493.557698
22.379097  229.140508  491.892569
22.473796  229.081539  490.227438
22.568494  229.022569  488.562309
22.663192  228.963600  486.897179
22.757890  228.904630  485.232050
23.430839  226.873596  483.029449
23.525734  226.814504  481.360846
23.620630  226.755411  479.692244
23.715526  226.696319  478.023642
23.810421  226.637226  476.355039
23.905317  226.578134  474.686437
23.420777  228.491844  473.576141
24.095108  226.459949  471.349232
24.190004  226.400857  469.680631
24.284900  226.341764  468.012028
24.379795  226.282672  466.343426
24.474691  226.223579  464.674823
24.569587  226.164487  463.006221
24.664482  226.105394  461.337619
24.759378  226.046302  459.669016
24.854274  225.987209  458.000414
24.949169  225.928117  456.331811
25.044065  225.869025  454.663209
25.138961  225.809932  452.994607
25.233856  225.750840  451.326004
25.328752  225.691747  449.657402
25.423648  225.632655  447.988799
24.935948  227.548332  446.934065
25.030646  227.489363  445.268936
25.125345  227.430393  443.603806
25.220043  227.371424  441.938677
25.314741  227.312454  440.273547
25.409439  227.253485  438.608417
25.504137  227.194516  436.943287
25.598836  227.135546  435.278157
25.693534  227.076577  433.613028
25.788232  227.017607  431.947898
25.882930  226.958638  430.282768
25.977628  226.899668  428.617638
26.072326  226.840699  426.952509
26.167025  226.781729  425.287379
26.261723  226.722760  423.622250
26.356421  226.663790  421.957119
26.451119  226.604821  420.291990
26.545817  226.545851  418.626860
26.640516  226.486882  416.961730
26.735214  226.427912  415.296601
26.829912  226.368943  413.631470
26.924610  226.309973  411.966341
27.019308  226.251004  410.301211
27.114006  226.192035  408.636082
27.208705  226.133065  406.970952
27.303403  226.074096  405.305822
27.398101  226.015126  403.640692
27.492799  225.956157  401.975563
27.587497  225.897187  400.310433
27.682196  225.838218  398.645303
27.776894  225.779248  396.980173
27.871592  225.720279  395.315043
27.966290  225.661309  393.649914
27.177318  228.570582  393.077483
28.155686  225.543370  390.319655
27.366122  228.453012  389.757641
27.460524  228.394227  388.097720
27.554926  228.335442  386.437799
27.649328  228.276657  384.777879
27.743730  228.217872  383.117958
27.838132  228.159087  381.458038
27.932534  228.100302  379.798117
28.026936  228.041517  378.138196
28.121338  227.982732  376.478275
28.215740  227.923947  374.818354
28.310142  227.865162  373.158433
28.404544  227.806377  371.498512
28.498946  227.747592  369.838591
28.593348  227.688807  368.178671
28.687749  227.630022  366.518751
28.782151  227.571237  364.858830
28.876553  227.512452  363.198909
28.970955  227.453667  361.538988
29.065357  227.394882  359.879067
29.159759  227.336097  358.219146
29.254161  227.277312  356.559225
29.348563  227.218527  354.899305
29.442965  227.159742  353.239384
29.537367  227.100957  351.579463
29.631769  227.042172  349.919542
29.726171  226.983387  348.259622
29.820573  226.924602  346.599701
29.914975  226.865817  344.939780
30.009377  226.807032  343.279859
30.103779  226.748247  341.619939
30.198181  226.689462  339.960018
30.292582  226.630677  338.300097
30.386984  226.571892  336.640176
30.481386  226.513107  334.980255
30.575788  226.454322  333.320334
30.670190  226.395537  331.660413
29.869665  229.312005  331.291132
29.963771  229.253404  329.636420
30.057877  229.194804  327.981708
30.151982  229.136203  326.326997
30.246088  229.077603  324.672284
30.340194  229.019002  323.017573
30.434299  228.960402  321.362861
30.528405  228.901801  319.708149
30.622511  228.843201  318.053437
30.716617  228.784600  316.398726
30.810722  228.726000  314.744014
30.904828  228.667399  313.089302
30.998934  228.608799  311.434590
31.093039  228.550198  309.779878
31.187145  228.491597  308.125166
31.281251  228.432997  306.470454
31.375356  228.374396  304.815743
31.469462  228.315796  303.161031
31.563568  228.257195  301.506319
31.057303  230.184433  300.778013
31.151211  230.125956  299.126774
31.245119  230.067478  297.475535
7.036426  144.957231  1362.651897
7.142777  144.891005  1360.781883
7.249127  144.824780  1358.911867
7.355477  144.758555  1357.041852
7.461828  144.692329  1355.171836
7.568178  144.626104  1353.301821
7.674528  144.559879  1351.431806
7.780878  144.493653  1349.561790
7.887229  144.427428  1347.691775
7.018974  148.186975  1343.576494
7.124930  148.120996  1341.713425
7.230885  148.055017  1339.850354
7.336840  147.989037  1337.987284
6.710657  150.793125  1334.461100
6.816316  150.727330  1332.603239
5.945000  154.488784  1328.541784
6.050264  154.423235  1326.690869
5.422206  157.228492  1323.197676
5.527173  157.163127  1321.351969
5.632141  157.097763  1319.506262
5.002896  159.903757  1316.033905
5.107568  159.838577  1314.193407
5.212240  159.773397  1312.352909
5.316911  159.708217  1310.512411
5.421583  159.643037  1308.671913
5.526254  159.577857  1306.831415
4.894936  162.385142  1303.395520
5.735598  159.447497  1303.150420
5.103687  162.255151  1299.724943
5.208062  162.190156  1297.889654
5.312437  162.125160  1296.054364
5.416813  162.060165  1294.219075
4.537499  165.826599  1290.298262
4.641479  165.761849  1288.469919
4.745460  165.697100  1286.641576
4.849440  165.632350  1284.813231
4.953420  165.567601  1282.984888
4.318153  168.377346  1279.618446
4.421837  168.312781  1277.795311
4.525521  168.248216  1275.972177
4.629205  168.183651  1274.149042
4.732890  168.119085  1272.325907
4.836574  168.054520  1270.502772
4.940258  167.989955  1268.679638
5.043942  167.925390  1266.856503
4.406007  170.736796  1263.536941
4.509395  170.672415  1261.719016
4.612783  170.608034  1259.901090
4.716171  170.543654  1258.083164
4.819559  170.479273  1256.265238
4.922947  170.414892  1254.447312
5.026335  170.350512  1252.629386
5.129723  170.286131  1250.811461
5.233111  170.221750  1248.993535
5.336499  170.157370  1247.175609
5.439886  170.092989  1245.357684
5.543274  170.028609  1243.539757
5.646662  169.964228  1241.721831
5.750050  169.899847  1239.903906
5.853438  169.835467  1238.085980
5.956826  169.771086  1236.268054
6.806572  166.827783  1235.863212
6.910256  166.763218  1234.040077
6.266990  169.577944  1230.814277
6.370378  169.513563  1228.996351
6.473765  169.449183  1227.178425
6.577153  169.384802  1225.360499
6.680541  169.320421  1223.542574
6.783929  169.256041  1221.724648
6.887317  169.191660  1219.906722
6.990705  169.127280  1218.088797
7.843414  166.182132  1217.631864
7.947098  166.117567  1215.808729
8.050782  166.053002  1213.985595
8.154466  165.988437  1212.162460
8.258150  165.923872  1210.339325
8.361834  165.859307  1208.516190
8.465519  165.794741  1206.693056
8.569203  165.730176  1204.869921
8.672887  165.665611  1203.046786
8.776571  165.601046  1201.223651
8.880255  165.536481  1199.400517
8.983939  165.471916  1197.577382
9.087623  165.407351  1195.754247
9.191308  165.342786  1193.931112
9.294992  165.278221  1192.107978
9.398676  165.213655  1190.284843
9.502360  165.149090  1188.461708
10.360400  162.200622  1187.911015
10.464380  162.135873  1186.082672
10.568361  162.071123  1184.254327
10.672341  162.006373  1182.425984
10.776322  161.941624  1180.597641
11.888086  158.030441  1180.431158
11.992461  157.965445  1178.595870
12.096836  157.900450  1176.760581
12.957939  154.950075  1176.156061
13.062610  154.884895  1174.315563
13.167282  154.819715  1172.475066
13.271953  154.754535  1170.634568
12.618713  157.575472  1167.584136
12.723088  157.510476  1165.748847
12.827464  157.445481  1163.913558
12.931839  157.380485  1162.078269
13.036215  157.315490  1160.242980
13.140590  157.250494  1158.407691
13.244965  157.185499  1156.572402
12.336027  160.970380  1153.172485
12.440008  160.905631  1151.344141
12.543988  160.840881  1149.515797
13.662467  156.925516  1149.231246
12.751949  160.711382  1145.859110
12.855929  160.646632  1144.030766
12.959910  160.581883  1142.202422
13.063890  160.517133  1140.374079
13.167870  160.452383  1138.545735
14.288719  156.535543  1138.219512
14.393094  156.470548  1136.384223
14.497470  156.405552  1134.548934
14.601845  156.340556  1132.713645
14.706220  156.275561  1130.878356
15.574729  153.320575  1130.143613
15.679400  153.255395  1128.303116
15.784072  153.190215  1126.462617
15.888743  153.125035  1124.622119
16.758733  150.169127  1123.861331
16.863701  150.103762  1122.015625
16.968669  150.038398  1120.169917
17.073636  149.973033  1118.324211
17.178604  149.907669  1116.478503
17.283572  149.842304  1114.632797
17.388540  149.776940  1112.787090
17.493508  149.711575  1110.941383
17.598476  149.646211  1109.095676
18.471427  146.688458  1108.282799
18.576691  146.622909  1106.431882
18.681955  146.557360  1104.580967
20.581255  139.741613  1105.103524
20.687210  139.675633  1103.240453
21.819118  135.751906  1102.719763
21.925469  135.685681  1100.849747
22.801877  132.725775  1099.976099
22.908523  132.659366  1098.100875
23.785819  129.698907  1097.211599
23.892762  129.632313  1095.331166
25.028027  125.706495  1094.751441
25.135365  125.639654  1092.864062
25.242703  125.572814  1090.976683
26.122172  122.611003  1090.049209
26.229806  122.543978  1088.156622
26.337440  122.476953  1086.264034
26.445074  122.409928  1084.371446
27.583796  118.481958  1083.730950
27.691825  118.414688  1081.831417
27.799854  118.347417  1079.931884
27.907883  118.280146  1078.032352
28.790413  115.316429  1077.051052
28.898738  115.248973  1075.146310
29.007064  115.181518  1073.241568
30.149242  111.251396  1072.540300
30.257962  111.183695  1070.628613
31.142664  108.218624  1069.609113
31.251680  108.150739  1067.692217
31.360696  108.082853  1065.775322
31.469713  108.014967  1063.858426
31.578729  107.947082  1061.941530
31.687746  107.879196  1060.024634
31.796762  107.811311  1058.107737
32.943187  103.878544  1057.331809
33.052599  103.810413  1055.407967
33.162010  103.742281  1053.484126
33.271422  103.674150  1051.560285
33.380833  103.606018  1049.636444
33.490245  103.537886  1047.712602
33.599656  103.469755  1045.788761
34.749240  99.535021  1044.957269
34.859047  99.466643  1043.026483
34.968853  99.398266  1041.095697
35.859677  96.429383  1039.968545
35.969780  96.360821  1038.032549
36.079882  96.292259  1036.096554
36.189985  96.223697  1034.160558
36.300088  96.155135  1032.224563
36.410190  96.086573  1030.288567
36.520293  96.018011  1028.352572
36.630396  95.949449  1026.416576
36.740498  95.880887  1024.480581
36.850601  95.812325  1022.544585
38.006012  91.873963  1021.610652
38.116510  91.805155  1019.667710
38.227008  91.736347  1017.724770
38.337505  91.667539  1015.781830
38.448003  91.598731  1013.838888
38.558501  91.529923  1011.895948
38.668998  91.461115  1009.953007
39.565550  88.488666  1008.725149
39.676343  88.419673  1006.776999
39.787137  88.350681  1004.828849
39.897931  88.281688  1002.880700
40.008725  88.212696  1000.932550
40.119519  88.143704  998.984401
40.230313  88.074711  997.036251
40.341107  88.005719  995.088102
40.451901  87.936726  993.139952
40.562695  87.867734  991.191802
40.673489  87.798741  989.243653
40.784283  87.729749  987.295503
40.895076  87.660756  985.347353
40.215966  90.497804  982.751837
40.326463  90.428996  980.808896
40.436961  90.360188  978.865955
41.338252  87.384787  977.554754
41.449046  87.315794  975.606604
40.768454  90.153764  973.037133
40.878952  90.084956  971.094192
40.989449  90.016148  969.151252
41.099947  89.947340  967.208310
41.210445  89.878532  965.265370
41.320942  89.809724  963.322429
41.431440  89.740916  961.379488
41.541938  89.672108  959.436548
41.652435  89.603300  957.493607
41.762933  89.534492  955.550666
41.873431  89.465684  953.607725
41.983928  89.396876  951.664785
42.094426  89.328068  949.721844
43.000161  86.349900  948.332508
43.110955  86.280908  946.384358
43.221749  86.211915  944.436209
43.332542  86.142923  942.488059
43.443336  86.073930  940.539909
43.554130  86.004938  938.591759
43.664924  85.935946  936.643611
43.775718  85.866953  934.695461
43.886512  85.797961  932.747311
43.997306  85.728968  930.799162
44.108100  85.659976  928.851012
44.218894  85.590983  926.902862
44.329688  85.521991  924.954712
44.440481  85.452999  923.006563
44.551275  85.384006  921.058413
44.662069  85.315014  919.110263
44.772863  85.246021  917.162113
44.883657  85.177029  915.213964
44.994451  85.108036  913.265814
45.105245  85.039044  911.317664
45.216039  84.970052  909.369514
45.326833  84.901059  907.421365
46.506633  80.947509  906.058559
46.617822  80.878270  904.103464
45.659214  84.694082  901.576915
45.770008  84.625089  899.628766
45.880802  84.556097  897.680616
45.991596  84.487104  895.732466
46.102390  84.418112  893.784317
46.213184  84.349120  891.836167
46.323978  84.280127  889.888017
46.434772  84.211135  887.939867
46.545566  84.142142  885.991718
46.656360  84.073150  884.043568
46.767154  84.004157  882.095418
46.877947  83.935165  880.147268
46.988741  83.866173  878.199119
47.099535  83.797180  876.250969
47.210329  83.728188  874.302820
47.321123  83.659195  872.354670
47.431917  83.590203  870.406521
46.735328  86.438134  868.118332
46.845826  86.369326  866.175392
46.956323  86.300518  864.232450
47.066821  86.231710  862.289510
47.177319  86.162902  860.346570
47.287816  86.094094  858.403628
47.398314  86.025286  856.460688
47.508812  85.956478  854.517747
47.619309  85.887670  852.574806
46.649740  89.710307  850.240989
46.759842  89.641745  848.304993
46.869945  89.573183  846.368998
46.980048  89.504621  844.433002
47.090150  89.436059  842.497007
47.200253  89.367497  840.561011
47.310356  89.298935  838.625016
46.608336  92.150248  836.432326
46.718142  92.081870  834.501539
46.827948  92.013493  832.570752
46.937755  91.945115  830.639966
45.963150  95.770888  828.394700
46.072562  95.702756  826.470859
46.181973  95.634625  824.547018
46.291385  95.566493  822.623177
46.400796  95.498362  820.699336
46.510208  95.430230  818.775494
47.706400  91.466472  817.124460
47.816206  91.398095  815.193674
47.926013  91.329717  813.262888
48.035819  91.261340  811.332101
48.145626  91.192962  809.401315
48.255432  91.124585  807.470528
48.365239  91.056207  805.539741
48.475045  90.987830  803.608955
48.584851  90.919452  801.678169
47.604322  94.748914  799.537082
47.713734  94.680783  797.613241
47.823145  94.612651  795.689400
47.932556  94.544520  793.765558
48.041968  94.476388  791.841717
47.059068  98.307326  789.742303
47.168084  98.239440  787.825407
47.277100  98.171555  785.908511
46.565996  101.028525  783.875562
46.674716  100.960824  781.963875
19.623979  198.277503  773.054905
18.901222  201.141729  771.226842
18.999771  201.080362  769.493996
19.098321  201.018994  767.761149
19.196870  200.957626  766.028303
19.295419  200.896259  764.295456
19.393969  200.834891  762.562611
19.492518  200.773524  760.829765
19.591067  200.712156  759.096918
19.689617  200.650788  757.364072
19.788166  200.589421  755.631226
19.886715  200.528053  753.898380
19.985264  200.466686  752.165534
20.083814  200.405318  750.432687
20.182363  200.343950  748.699841
20.280912  200.282583  746.966995
19.553415  203.149760  745.222275
19.651668  203.088577  743.494638
19.749921  203.027394  741.767001
19.848174  202.966211  740.039363
19.119196  205.834311  738.320688
19.217152  205.773312  736.598260
18.487285  208.641965  734.895211
18.584945  208.581151  733.177992
17.854189  211.450358  731.490571
16.570366  216.273403  729.836905
15.838227  219.143471  728.173791
14.276190  224.944482  726.566521
13.819105  226.838552  724.912574
13.914889  226.778906  723.228345
14.010673  226.719260  721.544116
14.106458  226.659614  719.859887
14.202242  226.599968  718.175658
14.298027  226.540323  716.491428
14.393811  226.480677  714.807199
14.489595  226.421031  713.122970
13.753408  229.293619  711.531045
13.848896  229.234158  709.852025
13.944384  229.174697  708.173005
14.039872  229.115235  706.493985
14.135360  229.055774  704.814964
14.230849  228.996312  703.135944
14.326337  228.936851  701.456924
14.421825  228.877390  699.777904
14.517313  228.817928  698.098883
14.612801  228.758467  696.419863
14.708289  228.699005  694.740843
14.803778  228.639544  693.061823
14.899266  228.580083  691.382802
14.994754  228.520621  689.703782
15.090242  228.461160  688.024762
15.185730  228.401698  686.345741
14.444508  231.277423  684.842370
14.539699  231.218146  683.168558
14.634891  231.158869  681.494747
15.567683  228.163853  679.629660
15.663171  228.104391  677.950640
15.758659  228.044930  676.271619
15.854147  227.985469  674.592599
15.949635  227.926007  672.913579
16.045124  227.866546  671.234559
16.140612  227.807084  669.555538
15.396427  230.684654  668.104256
15.491619  230.625377  666.430445
15.586810  230.566100  664.756634
15.682002  230.506823  663.082822
15.777194  230.447546  661.409010
15.872386  230.388269  659.735200
16.809029  227.390855  657.802397
16.904517  227.331393  656.123376
17.000005  227.271932  654.444355
17.095493  227.212471  652.765335
17.190981  227.153009  651.086315
17.286470  227.093548  649.407295
17.381958  227.034086  647.728274
17.477446  226.974625  646.049254
17.572934  226.915164  644.370234
16.824305  229.795500  642.997086
16.919497  229.736223  641.323275
17.014689  229.676946  639.649464
17.109881  229.617669  637.975652
17.205073  229.558392  636.301840
17.300265  229.499115  634.628030
17.395457  229.439839  632.954218
17.490649  229.380562  631.280407
17.585841  229.321285  629.606595
17.681033  229.262008  627.932784
17.776224  229.202731  626.258973
17.024040  232.085281  624.948332
17.118936  232.026188  623.279730
17.213831  231.967096  621.611127
17.308727  231.908004  619.942525
17.403623  231.848911  618.273922
17.498518  231.789819  616.605320
17.593414  231.730726  614.936718
17.688310  231.671634  613.268116
17.783205  231.612541  611.599514
17.878101  231.553449  609.930911
17.972997  231.494356  608.262309
18.067892  231.435264  606.593707
18.162788  231.376171  604.925104
18.257684  231.317079  603.256502
18.352579  231.257987  601.587899
18.447475  231.198894  599.919297
18.542371  231.139802  598.250695
18.637266  231.080709  596.582092
18.732162  231.021617  594.913490
18.827058  230.962524  593.244887
18.921953  230.903432  591.576285
19.016849  230.844339  589.907683
19.111745  230.785247  588.239080
20.060830  227.780085  586.087500
20.156022  227.720808  584.413690
20.251214  227.661531  582.739878
20.346406  227.602254  581.066067
20.441598  227.542977  579.392255
20.536790  227.483700  577.718444
20.631982  227.424423  576.044633
20.727174  227.365146  574.370821
20.822366  227.305869  572.697011
20.917558  227.246592  571.023199
21.012750  227.187315  569.349387
20.250493  230.076138  568.215851
20.345388  230.017045  566.547250
20.440284  229.957953  564.878647
20.535180  229.898860  563.210045
20.630076  229.839768  561.541443
20.724971  229.780675  559.872840
20.819867  229.721583  558.204238
20.914763  229.662490  556.535635
21.009658  229.603398  554.867033
21.104554  229.544305  553.198430
21.199450  229.485213  551.529828
21.294345  229.426121  549.861226
21.389241  229.367028  548.192623
21.484137  229.307936  546.524021
21.579032  229.248843  544.855418
21.673928  229.189751  543.186816
21.768824  229.130658  541.518214
21.863719  229.071566  539.849611
21.958615  229.012473  538.181009
22.053511  228.953381  536.512406
22.148406  228.894289  534.843804
22.243302  228.835196  533.175202
22.338198  228.776104  531.506599
21.856919  230.685239  530.278051
21.951617  230.626270  528.612922
22.046315  230.567300  526.947792
22.141013  230.508331  525.282662
22.235712  230.449361  523.617532
22.330410  230.390392  521.952403
22.425108  230.331422  520.287273
22.519806  230.272453  518.622144
22.614504  230.213483  516.957013
22.709203  230.154514  515.291883
22.803901  230.095544  513.626754
22.898599  230.036575  511.961624
22.993297  229.977605  510.296495
23.087995  229.918636  508.631364
23.182693  229.859667  506.966235
23.277392  229.800697  505.301105
23.372090  229.741728  503.635976
23.466788  229.682758  501.970846
23.561486  229.623789  500.305716
23.656184  229.564819  498.640586
23.750882  229.505850  496.975457
23.845581  229.446880  495.310327
23.940279  229.387911  493.645197
24.034977  229.328941  491.980067
24.129675  229.269972  490.314937
24.224373  229.211002  488.649808
24.319072  229.152033  486.984678
24.413770  229.093063  485.319549
24.508468  229.034094  483.654418
24.603166  228.975125  481.989289
24.697864  228.916155  480.324159
24.792562  228.857186  478.659030
24.887261  228.798216  476.993900
24.981959  228.739247  475.328769
25.076657  228.680277  473.663640
25.171355  228.621308  471.998510
25.266053  228.562338  470.333381
25.360752  228.503369  468.668251
25.455450  228.444399  467.003122
25.550148  228.385430  465.337991
25.644846  228.326460  463.672862
25.739544  228.267491  462.007732
25.834242  228.208521  460.342603
25.928941  228.149552  458.677473
26.023639  228.090582  457.012342
26.118337  228.031613  455.347213
26.213035  227.972644  453.682083
26.307733  227.913674  452.016954
26.402432  227.854705  450.351824
26.497130  227.795735  448.686694
26.591828  227.736766  447.021564
26.686526  227.677796  445.356435
26.781224  227.618827  443.691305
26.875922  227.559857  442.026176
26.970621  227.500888  440.361045
27.065319  227.441918  438.695916
27.160017  227.382949  437.030786
27.254715  227.323979  435.365656
27.349413  227.265010  433.700527
27.444112  227.206040  432.035396
27.538810  227.147071  430.370267
27.633508  227.088101  428.705137
27.728206  227.029132  427.040008
27.822904  226.970163  425.374878
27.917602  226.911193  423.709748
28.012301  226.852224  422.044618
28.106999  226.793254  420.379489
28.201697  226.734285  418.714359
28.296395  226.675315  417.049229
28.391093  226.616346  415.384099
28.485791  226.557376  413.718969
28.580490  226.498407  412.053840
28.675188  226.439437  410.388710
28.769886  226.380468  408.723581
28.864584  226.321498  407.058451
28.959282  226.262529  405.393321
29.053981  226.203559  403.728191
29.148679  226.144590  402.063062
29.243377  226.085620  400.397932
29.338075  226.026651  398.732802
29.432773  225.967682  397.067672
28.639214  228.875996  396.484550
28.733616  228.817211  394.824629
28.828018  228.758426  393.164708
28.922420  228.699641  391.504787
29.016822  228.640856  389.844866
29.111224  228.582071  388.184945
29.205625  228.523286  386.525024
29.300027  228.464501  384.865104
29.394429  228.405716  383.205184
29.488831  228.346931  381.545263
29.583233  228.288146  379.885342
29.677635  228.229361  378.225421
29.772037  228.170576  376.565500
29.866439  228.111791  374.905579
29.960841  228.053006  373.245658
30.055243  227.994221  371.585737
30.149645  227.935436  369.925817
30.244047  227.876651  368.265896
30.338449  227.817866  366.605976
30.432851  227.759081  364.946055
30.527253  227.700296  363.286134
29.727177  230.612669  362.817608
29.821283  230.554069  361.162896
29.915388  230.495468  359.508184
30.009494  230.436868  357.853473
30.103600  230.378267  356.198760
30.197705  230.319667  354.544049
31.188066  227.288801  351.666688
30.385917  230.202466  351.234626
30.480022  230.143865  349.579913
30.574128  230.085265  347.925201
30.668234  230.026664  346.270490
31.660076  226.994876  343.367085
31.754478  226.936091  341.707164
30.950551  229.850862  341.306354
31.943282  226.818521  338.387322
31.138762  229.733661  337.996930
31.232868  229.675061  336.342219
31.326974  229.616460  334.687507
31.421079  229.557860  333.032796
31.515185  229.499259  331.378083
31.609291  229.440659  329.723371
31.703397  229.382058  328.068660
31.797502  229.323458  326.413948
31.891608  229.264857  324.759236
31.384655  231.189980  323.982131
31.478563  231.131503  322.330891
31.572471  231.073025  320.679653
31.666380  231.014548  319.028414
31.760288  230.956070  317.377174
31.854196  230.897592  315.725935
31.948104  230.839115  314.074696
32.042012  230.780637  312.423456
32.738559  228.737452  309.866830
32.832665  228.678852  308.212117
32.926771  228.620251  306.557406
33.020876  228.561651  304.902694
32.511553  230.488250  304.167261
32.605462  230.429772  302.516021
32.699370  230.371295  300.864782
32.793278  230.312817  299.213543
32.887186  230.254340  297.562304
8.896054  145.168850  1362.750163
9.002405  145.102625  1360.880148
9.108755  145.036399  1359.010132
9.215105  144.970174  1357.140117
9.321456  144.903949  1355.270101
8.447874  148.661726  1351.126675
8.553830  148.595747  1349.263605
9.640507  144.705272  1349.660055
8.765740  148.463788  1345.537465
8.871696  148.397809  1343.674394
8.977651  148.331829  1341.811325
9.083606  148.265850  1339.948254
9.189562  148.199870  1338.085184
8.558198  151.003369  1334.558727
7.680370  154.763791  1330.489963
7.785634  154.698242  1328.639046
7.152691  157.502724  1325.140371
7.257659  157.437360  1323.294663
7.362627  157.371995  1321.448957
6.728499  160.177216  1317.971117
6.833171  160.112036  1316.130619
6.937842  160.046856  1314.290121
6.302529  162.852814  1310.833116
6.406905  162.787818  1308.997828
6.511280  162.722823  1307.162539
7.356529  159.786136  1306.928129
6.720031  162.592832  1303.491960
6.824406  162.527836  1301.656672
6.928782  162.462841  1299.821383
7.033157  162.397845  1297.986094
6.147726  166.163002  1294.051025
6.251707  166.098252  1292.222682
6.355687  166.033502  1290.394338
6.459667  165.968753  1288.565994
6.563648  165.904003  1286.737651
6.667628  165.839254  1284.909307
6.027476  168.648225  1281.537382
6.131160  168.583660  1279.714247
6.234844  168.519095  1277.891112
6.338528  168.454530  1276.067978
6.442212  168.389964  1274.244843
5.800283  171.200043  1270.904172
5.903671  171.135662  1269.086246
6.007059  171.071281  1267.268321
6.110447  171.006901  1265.450395
6.213835  170.942520  1263.632469
6.317223  170.878139  1261.814544
6.420611  170.813759  1259.996618
6.523998  170.749378  1258.178692
6.627386  170.684997  1256.360766
6.730774  170.620617  1254.542840
6.834162  170.556236  1252.724914
6.937550  170.491856  1250.906989
7.040938  170.427475  1249.089063
7.144326  170.363094  1247.271137
7.247714  170.298714  1245.453212
7.351102  170.234333  1243.635285
7.454490  170.169952  1241.817359
7.557877  170.105572  1239.999434
7.661265  170.041191  1238.181508
7.764653  169.976810  1236.363582
7.868041  169.912430  1234.545657
7.971429  169.848049  1232.727731
8.074817  169.783668  1230.909805
8.178205  169.719288  1229.091879
8.281593  169.654907  1227.273953
8.384981  169.590527  1225.456027
8.488369  169.526146  1223.638102
8.591756  169.461765  1221.820176
8.695144  169.397385  1220.002250
8.798532  169.333004  1218.184325
9.656420  166.388446  1217.727666
9.005308  169.204243  1214.548472
9.863789  166.259316  1214.081397
9.967473  166.194751  1212.258262
10.071157  166.130185  1210.435127
10.174841  166.065620  1208.611992
10.278525  166.001055  1206.788858
10.382209  165.936490  1204.965723
10.485894  165.871925  1203.142588
10.589578  165.807360  1201.319453
10.693262  165.742795  1199.496319
10.796946  165.678230  1197.673184
10.900630  165.613665  1195.850049
11.004314  165.549099  1194.026914
11.107998  165.484534  1192.203780
11.211682  165.419969  1190.380645
11.315367  165.355404  1188.557510
11.419051  165.290839  1186.734375
12.282568  162.342776  1186.178747
12.386549  162.278027  1184.350403
12.490529  162.213277  1182.522059
12.594510  162.148527  1180.693716
12.698490  162.083778  1178.865372
13.817556  158.173135  1178.692310
13.921931  158.108139  1176.857021
14.026307  158.043143  1175.021732
14.130682  157.978148  1173.186443
14.235057  157.913152  1171.351154
14.339433  157.848157  1169.515865
14.443808  157.783161  1167.680577
14.548183  157.718166  1165.845287
14.652559  157.653170  1164.009998
14.756934  157.588175  1162.174709
14.861309  157.523179  1160.339421
14.965685  157.458184  1158.504131
14.050235  161.242033  1155.096904
14.154215  161.177284  1153.268560
14.258196  161.112534  1151.440216
14.362176  161.047784  1149.611873
14.466156  160.983035  1147.783528
14.570137  160.918285  1145.955185
14.674117  160.853536  1144.126842
14.778098  160.788786  1142.298498
14.882078  160.724037  1140.470154
14.986058  160.659287  1138.641810
16.113814  156.743233  1138.315953
16.218189  156.678237  1136.480663
16.322565  156.613241  1134.645374
16.426940  156.548246  1132.810086
16.531315  156.483250  1130.974797
17.405003  153.528854  1130.240327
17.509675  153.463674  1128.399830
17.614346  153.398494  1126.559332
17.719018  153.333314  1124.718834
18.594187  150.377995  1123.958319
18.699154  150.312630  1122.112612
18.804122  150.247266  1120.266905
18.909090  150.181901  1118.421199
19.014058  150.116537  1116.575491
19.119026  150.051172  1114.729785
19.223994  149.985808  1112.884077
19.328962  149.920443  1111.038371
19.433929  149.855079  1109.192664
20.312061  146.897915  1108.380061
20.417325  146.832366  1106.529144
21.554264  142.910593  1106.041809
22.433976  139.952446  1105.201424
22.539931  139.886467  1103.338354
23.678746  135.963525  1102.818029
23.785097  135.897300  1100.948013
24.666684  132.937984  1100.074638
24.773331  132.871574  1098.199414
25.655807  129.911705  1097.310412
25.762750  129.845111  1095.429978
26.904922  125.920079  1094.850619
27.012260  125.853238  1092.963240
27.119598  125.786398  1091.075861
28.004246  122.825176  1090.148661
28.111880  122.758151  1088.256073
28.219514  122.691127  1086.363485
28.327148  122.624102  1084.470898
29.472777  118.696918  1083.830766
29.580806  118.629647  1081.931233
29.688835  118.562376  1080.031701
29.796864  118.495106  1078.132168
30.684574  115.531977  1077.151142
30.792899  115.464522  1075.246400
31.941589  111.535432  1074.552442
32.050309  111.467731  1072.640755
32.159029  111.400030  1070.729068
33.048912  108.435549  1069.709842
33.157929  108.367663  1067.792946
33.266945  108.299777  1065.876050
33.375962  108.231892  1063.959155
33.484978  108.164006  1062.042259
33.593995  108.096121  1060.125363
33.703011  108.028235  1058.208466
34.856342  104.096255  1057.432902
34.965753  104.028123  1055.509061
35.075165  103.959991  1053.585220
35.184576  103.891860  1051.661379
35.293988  103.823728  1049.737537
36.449689  99.890272  1048.920301
36.559495  99.821895  1046.989514
37.454611  96.854155  1045.878264
37.564713  96.785593  1043.942269
37.674816  96.717031  1042.006273
37.784919  96.648469  1040.070278
37.895021  96.579907  1038.134282
38.005124  96.511345  1036.198287
38.115227  96.442783  1034.262291
39.275174  92.506682  1033.370394
39.385671  92.437874  1031.427452
38.445535  96.237097  1028.454305
38.555638  96.168535  1026.518309
39.717164  92.231450  1025.598630
39.827662  92.162642  1023.655690
39.938160  92.093834  1021.712749
40.048657  92.025027  1019.769808
40.159155  91.956219  1017.826867
40.269653  91.887411  1015.883927
40.380150  91.818603  1013.940985
40.490648  91.749795  1011.998045
40.601146  91.680987  1010.055105
41.502878  88.709127  1008.827520
41.613671  88.640134  1006.879370
41.724465  88.571142  1004.931220
41.835259  88.502150  1002.983071
41.946053  88.433157  1001.034921
42.056847  88.364165  999.086772
42.167641  88.295172  997.138622
42.278435  88.226180  995.190473
42.389229  88.157187  993.242323
42.500023  88.088195  991.294173
42.610817  88.019202  989.346024
42.721610  87.950210  987.397874
42.832404  87.881218  985.449724
42.943198  87.812225  983.501574
43.053992  87.743233  981.553425
43.164786  87.674240  979.605275
43.275580  87.605248  977.657125
43.386374  87.536255  975.708975
43.497168  87.467263  973.760826
42.811099  90.304827  971.196289
43.718756  87.329278  969.864526
43.032094  90.167212  967.310408
43.142592  90.098404  965.367467
43.253090  90.029596  963.424527
44.161931  87.053308  962.071927
43.474085  89.891980  959.538645
43.584583  89.823172  957.595704
43.695080  89.754364  955.652763
43.805578  89.685556  953.709823
44.715901  86.708346  952.331179
44.826695  86.639354  950.383029
44.937489  86.570361  948.434879
45.048283  86.501369  946.486729
45.159077  86.432376  944.538580
45.269870  86.363384  942.590430
45.380664  86.294392  940.642280
45.491458  86.225399  938.694130
45.602252  86.156407  936.745982
45.713046  86.087414  934.797832
45.823840  86.018422  932.849682
45.934634  85.949429  930.901532
46.045428  85.880437  928.953383
46.156222  85.811445  927.005233
46.267016  85.742452  925.057083
46.377809  85.673460  923.108934
46.488603  85.604467  921.160784
47.672546  81.653425  919.846961
46.710191  85.466482  917.264484
47.894924  81.514948  915.936770
48.006113  81.445710  913.981675
48.117301  81.376471  912.026581
48.228490  81.307233  910.071486
48.339679  81.237994  908.116391
48.450868  81.168756  906.161295
